ply
format ascii 1.0
comment Created by Open3D
element vertex 1950
property double x
property double y
property double z
end_header
19.8144 52.6834 497.676
18.8657 52.1212 496.867
18.0167 52.2639 498.227
-0.124449 51.9971 494.467
-5.21827 51.7307 493.145
-5.97127 51.7616 492.227
-6.37093 51.9103 493.64
-6.50471 51.8334 494.124
-6.89301 52.0026 494.519
-10.2932 51.634 492.222
-12.4273 52.0539 496.225
-19.4016 48.9571 466.704
1.7536 66.9656 495.936
-30.8532 51.5792 491.7
-31.8167 51.4943 490.891
-17.2105 56.7664 493.742
-34.2035 51.6528 492.402
-34.5458 51.7847 493.659
35.3564 51.962 497.801
31.5112 51.9809 497.981
30.9582 52.0601 498.74
29.7894 52.1185 499.299
27.5929 51.8678 496.898
13.6783 51.6576 494.884
13.1979 51.7787 496.045
9.11156 51.9807 496.75
5.49438 51.6158 494.483
3.723 51.8445 496.674
2.43228 51.6733 495.034
1.92416 51.7607 495.872
1.15892 51.8999 497.205
-2.81259 51.7343 495.619
-4.46227 51.5699 494.044
-5.10501 51.8771 494.542
-7.57158 51.8936 497.145
-9.08187 51.7207 495.489
-10.0324 51.4736 491.904
-25.9 51.5762 494.105
-26.9556 51.6428 494.742
-31.9809 51.0981 489.524
-5.0005 64.946 496.815
35.1921 51.8415 499.116
-5.22391 64.2808 493.677
34.9041 51.9255 498.685
-3.83063 60.7284 494.858
33.6131 51.7919 498.638
23.9398 51.4822 495.656
3.2208 57.6828 498.356
22.9126 51.753 497.439
20.4635 51.8834 498.279
18.7623 51.9335 497.528
17.9019 51.7891 498.611
14.7332 51.6861 495.975
12.7203 51.9206 497.403
11.6604 51.5212 496.032
11.9291 51.8955 496.548
9.62454 51.5949 496.741
9.51659 51.8337 497.802
8.35133 51.6544 497.314
5.24129 51.383 494.701
33.4006 67.7169 435.432
33.6281 66.5016 498.86
1.7224 51.7011 496.775
0.89918 51.8683 495.678
-0.381844 51.6329 497.107
-1.022 51.5442 496.253
-1.97576 51.6096 494.423
-2.67961 51.3829 494.7
-8.28492 51.6666 493.749
-9.29928 51.2525 493.445
-9.19076 51.6767 494.456
-9.96005 51.7576 494.62
-33.8728 57.9785 558.201
-3.90114 65.7592 495.692
-57.7317 44.3987 427.458
30.1238 51.5255 497.723
29.9192 51.7877 498.597
28.787 51.7459 497.576
27.786 51.8382 497.599
27.2054 51.5931 499.206
26.8171 51.9045 497.742
26.576 51.3733 497.079
57.6809 -4.18318 472.179
53.7761 -4.44717 472.156
-18.8006 -114.554 485.417
53.876 -4.19323 471.716
5.75847 60.7313 495.229
32.9649 -4.11174 470.979
26.7252 -4.14788 470.829
35.2929 46.0438 500.546
24.8297 -4.2397 470.784
23.8025 -4.23867 470.665
73.8341 -8.04124 475.238
22.8511 -4.22992 470.6
51.8983 -14.0629 472.266
50.4914 -2.04941 472.226
20.9236 -4.22043 470.433
19.1883 3.18071 470.186
19.9922 -4.12962 470.244
33.8594 45.489 499.422
26.2051 66.6268 499.799
9.55755 65.7502 496.591
84.1211 32.7975 473.533
9.6525 -4.86387 498.184
59.8866 15.8205 473.712
-5.24338 -4.85671 472.456
90.8055 -10.0416 476.373
-50.1659 -4.98003 484.453
31.9257 -8.40405 471.383
29.539 -49.5019 499.426
93.1718 -5.13844 475.949
17.6719 -78.3875 499.393
16.1039 -29.2483 468.764
67.0511 -4.98646 473.191
41.964 -5.05529 468.247
-5.25914 -5.11606 473.876
23.7417 54.431 496.868
90.8901 -10.4488 475.972
-52.6841 -5.30749 491.607
-2.93965 60.9307 495.463
-80.8097 -5.95842 551.9
106.33 -5.4096 478.188
-11.703 3.52323 467.306
19.8579 4.66859 470.227
74.811 -5.15311 474.786
15.9081 -5.31848 470.134
27.797 25.6963 464.9
102.748 -5.64298 477.038
100.644 -5.56033 476.994
99.8039 -5.29999 477.217
95.8995 -5.2895 476.534
93.7823 -5.2749 476.428
13.9272 40.9023 494.645
90.751 -5.31727 476.238
88.8342 -5.34281 476.237
-69.497 25.9371 522.565
77.8991 -18.1314 475.008
30.6642 16.2631 469.274
80.7907 -5.25546 475.421
-78.9763 -71.0957 515.728
64.0321 3.69837 474.288
22.7095 68.2824 532.864
31.91 -6.20997 471.446
76.7413 -5.4787 475.001
9.735 -43.2802 498.647
74.8557 -5.3766 475.268
67.9416 -5.27374 472.825
10.8066 8.55336 468.868
65.919 -5.22504 472.668
64.9109 -5.20387 472.7
19.7372 51.5718 497.58
63.9315 -5.24866 472.594
60.8247 -5.37327 469.62
60.5518 -5.5469 468.916
8.35915 53.7596 497.78
56.8804 -5.55498 469.599
49.8735 -5.28739 471.688
48.9147 -5.1597 471.471
59.7427 -22.2827 472.366
34.9069 12.782 469.614
33.8928 -5.19004 471.704
-12.1823 3.89209 465.499
32.8773 -5.21179 471.467
69.8631 4.80382 474.585
29.9702 -5.1976 471.181
29.8485 -5.23028 470.937
27.8751 -5.06117 471.295
26.902 -5.57515 471.304
24.8008 -5.20338 470.695
54.9372 -20.3683 471.888
23.8272 -5.20295 470.673
51.2404 6.90471 475.784
19.1392 -5.27621 469.973
18.8271 -5.14989 470.261
15.7674 -5.18531 469.8
51.8869 -6.18775 471.608
-52.7745 47.5986 428.439
14.0839 -5.24146 469.454
63.1261 -5.8255 471.865
-56.8997 -54.2288 488.56
1.93556 -47.5084 498.808
23.4283 -5.80231 469.986
10.8865 -5.84587 473.515
-72.3287 -5.27913 427.609
7.8017 48.6052 495.036
101.865 -5.98091 476.483
86.9505 -6.00212 476.208
53.5255 -6.0722 472.097
16.3923 -6.04642 470.092
-31.0266 -50.7977 494.463
62.7348 -5.93333 470.758
78.5193 -6.35555 475.05
71.0944 -6.05361 474.458
55.6651 -6.16103 469.577
104.931 -6.36509 475.764
102.879 -6.30306 475.724
100.815 -6.50116 475.735
38.9141 5.1793 475.305
99.8602 -6.20312 476.545
83.7933 -5.26667 475.692
7.01767 51.2938 493.842
98.8805 -6.24147 476.88
-6.61574 11.3356 465.991
95.809 -6.28413 476.61
-2.95222 -47.0062 497.583
36.4272 49.1909 498.379
-72.8404 -16.1904 424.158
73.087 -14.2124 475.225
86.7424 -6.27832 475.838
-5.00122 20.5981 467.374
85.6667 -6.18127 475.794
21.8422 68.754 497.445
-12.7354 11.9283 460.992
81.7733 -6.61603 476.138
-24.6186 -49.7292 493.996
90.5504 18.6043 479.643
75.9306 -6.25227 475.192
19.6258 50.8981 496.619
73.8228 -6.2299 474.826
71.8488 -6.22893 474.748
6.00424 53.3951 494.405
12.874 -55.0974 503.413
70.0401 -6.17929 473.295
69.7396 -6.23542 472.916
67.8775 -6.1785 472.762
65.9219 -6.20197 472.689
64.8722 -6.22849 472.65
63.9756 -6.05367 472.559
52.8962 -6.16459 471.703
29.1738 70.3423 429.491
52.5625 -6.56142 472.208
47.2642 -6.44865 472.881
108.73 -11.5337 473.58
82.7931 18.7704 475.337
30.8824 -6.14408 471.372
48.9264 -7.29794 471.593
-51.7954 0.659511 491.607
-24.8331 63.9493 431.257
59.9019 -5.07928 470.469
16.0606 -6.19532 470.335
17.7386 -23.2921 465.375
10.4197 -6.59372 474.532
65.8747 -6.82 473.226
58.8473 -6.18042 468.43
17.8399 17.7393 468.256
14.8515 23.7085 468.722
-4.20163 59.403 493.402
57.8013 -6.20211 468.412
48.8754 -16.1837 471.683
17.9959 -6.29102 470.226
14.5526 48.1794 498.567
17.7739 -6.14848 469.937
16.8688 -6.29636 469.839
89.5552 -6.02322 475.933
83.9883 -7.10803 476.148
64.1624 -7.03746 471.421
35.898 28.7638 469.571
63.1571 -7.00698 469.379
55.8775 -6.99098 468.307
-31.3552 -48.5426 493.606
21.8679 41.6405 497.699
-19.8154 -43.8509 482.654
-4.29927 48.9287 494.86
103.529 -21.5849 472.731
-84.5392 -66.8271 539.322
-4.09547 16.804 467.691
-22.4241 47.6991 496.249
86.4507 -7.35422 476.165
40.7729 41.6979 499.586
75.9145 -7.15025 474.871
97.714 -10.2808 475.025
86.2012 -4.89463 476.145
-9.98095 -48.2322 495.656
18.829 20.6619 467.894
24.4477 70.2529 522.948
12.4096 45.3017 495.259
53.6402 -6.96006 471.676
20.5185 -7.25993 470.06
18.9589 7.6395 469.824
17.6013 -7.13702 469.959
14.9098 48.6003 497.603
109.217 -7.51655 476.061
19.1061 49.5127 496.444
105.843 -6.45855 475.862
92.8225 -7.23496 476.409
20.9511 -24.3491 465.287
91.8308 -7.18349 476.261
91.2517 -7.43329 475.978
-5.40032 -114.204 486.597
89.8959 -7.25968 476.013
-5.01878 -46.8476 498.63
-2.17057 -35.5626 480.978
78.7881 -7.20903 475.24
-16.9866 -37.6758 480.206
77.8862 -7.21246 474.929
9.57418 10.9273 469.13
-22.5668 11.6376 463.635
76.7262 -7.17208 474.962
75.7234 -7.27812 475.211
19.2312 21.0657 468.274
23.0276 5.85057 470.065
-29.07 42.4285 491.607
20.6964 83.7885 479.814
36.879 14.7702 469.828
72.7895 -7.15671 474.714
31.7576 12.7448 469.434
63.9734 -7.1448 470.479
47.1447 -7.52867 471.686
31.6959 -7.32181 470.92
6.71377 -7.41896 472.456
30.1332 -48.5965 500.728
83.2594 33.8887 473.402
-4.96857 60.0684 493.634
-56.4282 -7.90875 495.499
-5.22257 57.1266 493.551
29.513 -55.1284 498.987
63.7441 -7.46632 469.684
79.86 11.7755 474.997
-6.01093 45.0671 495.492
63.3561 -7.72898 469.057
62.8401 -7.39987 468.671
-4.46151 60.4907 493.96
57.818 -7.35446 468.351
-78.9037 -3.37237 548.557
56.9562 -7.30074 468.227
24.1174 10.8084 469.226
51.9093 -7.24456 471.689
49.9095 -7.33784 471.594
48.1627 -7.77933 472.112
47.1888 -7.51636 470.911
32.9001 -7.25683 471.519
27.8683 -7.23486 470.863
-52.1885 29.3587 473.296
27.7523 -7.32747 471.275
26.7191 -7.17627 470.941
17.9872 -7.39293 470.342
14.5452 48.4121 498.312
16.7114 -7.32525 469.799
-4.71842 59.7478 494.146
46.3374 -13.1796 473.394
14.4142 18.0677 468.932
25.5546 -4.59992 471.148
6.05281 -50.0879 498.411
34.0171 46.9229 498.897
-54.2076 -8.10055 491.607
90.4862 -3.66921 476.694
85.1134 -7.97053 476.251
28.9442 -3.43273 471.264
31.1328 15.7701 469.031
31.165 60.9379 496.564
-15.9433 22.5359 465.668
72.8909 -8.07475 475.147
53.8 -7.99123 470.233
0.805984 24.7503 467.732
19.9599 19.6779 468.344
24.9762 55.625 497.6
25.1879 -8.00625 471.116
-53.7906 -35.3366 485.551
96.6954 -8.07273 476.475
24.8062 46.5416 498.493
91.9583 -8.21269 476.03
-4.99236 -114.374 483.596
30.8652 -26.4148 470.227
-31.2417 -43.8457 493.826
47.0707 -8.24658 470.945
54.4932 -7.29979 469.51
17.909 -8.09944 470.249
80.5019 8.89983 477.349
22.8431 13.6754 468.466
-66.9304 -7.45226 425.583
111.581 -8.56841 475.305
17.0689 58.9205 496.855
26.736 41.1522 497.666
-0.380005 49.505 494.659
-11.088 46.6847 493.653
-47.5426 -41.2884 473.284
15.336 22.4796 467.499
106.115 -7.10757 476.117
6.5509 53.6898 497.133
98.974 -8.2529 475.312
2.95538 27.6472 467.971
97.1112 -8.58057 475.979
96.249 -8.58042 475.971
-48.3936 -98.1085 519.124
9.10796 -37.9325 496.553
92.5717 -8.45844 476.023
26.4225 65.0579 524.617
-5.51431 -114.965 485.565
31.0238 -38.2335 500.493
16.6716 66.4411 497.762
76.4698 12.7888 475.274
15.7865 27.7839 469.407
86.7981 -8.26352 475.74
30.8106 -26.2403 469.864
85.7954 -8.28247 475.804
7.04245 52.6701 495.592
98.8722 -5.45618 476.865
83.7623 -8.18249 475.702
14.8102 -4.24619 469.713
17.8778 60.464 497.942
81.5845 -8.56362 475.039
81.3178 -8.56137 474.914
78.892 -8.17378 475.419
79.3836 -8.31903 475.083
78.4634 -8.31683 474.959
85.8203 -21.4347 475.981
75.682 -8.1804 474.952
7.76342 -56.6074 527.161
18.7291 21.6491 467.815
71.5495 -8.53729 473.578
70.8619 -8.26512 473.397
-23.1258 7.93271 464.043
52.5724 -8.39223 472.297
-21.8792 10.0676 463.021
30.8594 -8.24792 471.021
26.0805 -8.4119 471.122
1.93251 -49.6202 498.024
29.0249 41.7876 498.349
16.7829 -8.32983 470.153
71.8911 -5.28362 474.796
103.893 -8.81778 475.514
97.6142 -13.2789 475.197
7.81849 -46.0922 499.373
66.9311 -8.27925 472.812
66.9042 -8.28538 473.161
66.3507 -8.77367 473.135
62.8841 -8.35603 468.749
102.538 -14.3628 472.101
2.43975 -38.3173 496.553
59.794 -8.3084 468.434
58.7607 -8.24076 468.313
57.6556 -8.25283 468.233
47.7376 -8.34372 471.527
33.8549 -8.3784 471.516
23.8252 -7.26874 470.634
24.7772 -8.38825 470.709
66.2251 -9.55163 472.936
18.9245 -8.30758 470.267
56.822 -19.5137 471.991
14.007 -8.37264 469.49
13.6658 -8.35618 470.267
83.8133 -6.2564 475.678
61.7632 -5.4472 470.765
10.8178 13.807 469.207
99.0826 -7.04877 476.297
20.7952 48.8265 497.692
-31.8923 52.1251 492.059
22.5363 -29.536 469.104
96.5298 -9.07538 476.143
48.7808 -8.97767 471.017
21.8273 -31.379 469.49
109.097 -9.07747 476.25
29.9954 -25.4759 470.19
13.8947 57.7272 496.524
30.9052 49.6397 498.579
101.213 -9.29971 475.04
99.8567 -9.17636 475.006
106.966 -22.3174 475.853
-40.323 -58.9433 511.976
1.66108 48.4839 493.801
83.2726 26.4353 473.477
19.118 -6.30758 469.949
17.2232 -23.4585 466.293
76.8114 27.8621 469.361
53.4403 -9.06437 469.207
65.0461 21.4598 474.313
-54.6113 -9.65051 492.959
110.816 -9.21285 476.403
6.66647 16.5003 469.128
106.432 -21.924 474.787
-3.37441 23.9072 467.086
16.6927 -13.0246 470.006
-10.4436 18.6353 464.963
16.9556 24.7274 467.769
15.6635 26.884 469.356
69.8187 26.7551 472.789
87.8313 -9.18655 476.242
89.8502 -7.99414 476.194
93.8204 -9.23223 476.622
10.7014 -41.7362 499.102
84.7311 -9.32194 476.176
100.883 -23.1507 475.64
-40.6356 -45.2291 496.413
-30.2412 -43.5713 495.54
14.0418 -37.5829 498.72
-2.1799 58.3291 497.282
79.7585 -9.14953 475.436
77.8268 -9.14444 474.941
76.0687 -9.19915 474.915
-106.455 24.2489 493.689
69.6871 23.4148 473.39
16.232 25.7563 467.806
75.7371 -9.17082 475.297
69.8832 23.8027 472.676
-26.7488 44.9073 490.947
73.7698 -9.20574 474.711
112.277 -9.83539 477.221
104.906 -9.7573 473.433
14.787 65.5877 497.79
21.8379 -39.3804 500.286
71.9562 -7.25731 475.187
103.876 -9.75247 473.198
102.879 -9.77389 474.238
2.75595 48.9331 495.768
-19.1973 56.0511 494.557
25.0362 -28.7584 468.278
24.6229 -39.2627 500.433
69.042 -9.50724 473.157
75.9005 9.53408 475.168
67.8305 -9.75311 473.229
5.87285 -46.0743 497.695
7.57575 7.83856 469.168
58.1388 -9.24273 468.013
57.7279 -9.29799 468.3
55.8836 -9.21729 468.359
-30.9731 -50.5826 493.609
-22.7125 64.5109 429.067
55.8401 -9.40351 467.994
-32.7823 -48.9622 493.98
53.6773 -9.3235 468.392
20.7626 22.6171 468.264
20.5039 58.3036 499.264
71.9761 24.7072 473.167
53.1751 -9.4952 469.541
52.5776 -9.29953 470.886
50.9158 -9.35492 471.64
26.0137 16.9102 464.855
47.8523 -9.36657 471.457
24.4879 67.495 526.719
21.6076 -5.55955 469.985
-28.2525 -42.295 493.591
42.6587 -9.83854 477.374
33.6979 -9.70766 471.024
30.9276 -9.35098 471.442
29.9559 -9.35181 471.478
36.0056 16.4767 470.183
-0.059246 -40.3618 482.667
25.6012 -9.63138 471.258
22.7091 54.8011 496.733
22.8493 -9.33362 470.562
10.6536 41.4714 496.872
22.788 12.7222 468.566
16.7818 -9.28655 470.233
16.6935 -9.44432 470.027
14.8228 -9.29016 469.598
74.0043 32.6212 469.239
-28.1026 43.4613 494.692
102.571 -10.0007 473.381
-22.2388 -82.258 497.84
79.3835 -10.0367 475.082
-52.4302 1.2943 491.607
66.7169 -9.99549 473.133
30.319 53.4931 495.312
105.88 -10.0791 473.234
96.8662 -9.15701 475.473
29.5602 -10.1936 470.993
107.886 -9.15757 476.154
-18.4296 -4.74053 485.551
86.6446 26.9464 473.863
-52.4302 -10.6397 491.607
35.509 -6.166 471.814
26.5896 8.2788 470.085
7.16853 49.7977 495.453
-72.9913 -9.2546 427.609
74.4836 8.12226 475.131
110.911 -10.1403 476.402
109.94 -10.1536 475.962
102.859 -10.2251 472.458
99.7628 -10.0064 475.31
-7.5676 47.7601 496.884
95.8737 -10.128 475.532
90.2224 -10.178 475.952
88.6194 -10.0053 475.924
70.8524 2.72057 474.643
11.6261 -6.46061 473.754
31.0067 1.57537 471.257
9.84439 6.58442 470.458
110.938 -7.16495 479.961
6.66755 14.5643 469.206
13.5837 54.603 496.099
52.4538 -10.1987 471.23
62.7812 -19.3712 472.708
47.6828 -10.4634 472.19
16.6196 55.1552 498.775
56.6874 -22.2436 472.03
78.8467 37.8565 473.333
11.1127 -10.4754 472.734
-14.1152 19.7465 464.812
29.1866 53.7635 497.816
104.762 -10.5033 471.794
103.864 -10.5037 471.811
106.981 -23.1786 476.001
14.764 -23.3276 468.502
55.8642 -8.17163 467.919
17.8587 41.5165 497.413
99.8102 -10.2774 474.868
28.8759 -8.68437 470.943
-21.0871 -38.2099 477.581
-16.2328 18.1693 462.273
99.2534 -10.7722 475.054
97.8608 -18.2364 474.548
19.0542 -42.2912 499.567
96.9487 -10.1762 475.347
92.5829 -10.7955 476.081
75.9174 -10.4089 475.274
76.6791 9.7126 474.898
15.9854 26.7819 468.843
-7.8349 55.2779 497.561
4.82952 23.7266 468.284
74.8255 -10.5306 475.225
73.7915 -10.3573 474.783
72.0426 -10.2422 474.499
-37.095 -46.5875 494.502
7.36016 -42.309 499.778
60.5598 -7.59137 468.041
-17.9741 68.0216 432.365
-26.515 -55.0614 496.062
71.6363 -10.3947 473.504
69.9921 -10.1457 473.302
69.8264 -10.4569 472.902
-25.8076 -52.6241 497.242
67.9034 -10.3799 472.83
-114.789 -5.54412 490.079
66.9266 -10.4022 472.821
65.6677 -10.3314 471.739
-7.26855 -42.1704 483.394
19.0363 61.6558 501.36
-25.2918 -41.2661 495.52
13.7283 -7.62845 470.327
39.4552 20.7815 470.052
18.7452 61.8086 500.5
-25.0513 -41.4007 494.478
-7.35314 -42.5345 482.803
64.5389 -10.3894 468.85
29.8736 48.8662 497.694
62.9274 -10.2621 468.57
60.79 -10.2701 468.61
5.54812 -46.9124 499.32
53.0446 -10.2112 469.567
13.7081 55.0362 495.962
52.4054 -10.6756 470.796
30.9296 -11.2997 471.472
29.0229 -10.3318 471.246
25.8406 -10.4411 471.186
25.7711 -10.2835 470.828
-41.6501 47.1556 493.245
24.7892 -10.3325 470.86
-3.13566 21.6325 467.458
19.9041 -10.2652 470.294
30.1376 -4.40286 470.894
69.1743 36.2622 474.063
-67.1388 -9.61727 424.122
-17.1622 27.6863 478.188
100.386 -10.9804 473.454
3.72402 62.1205 496.792
87.1856 -11.0429 476.149
92.7922 -16.3433 476.524
-66.9997 -9.84809 424.629
109.477 -17.7948 472.585
110.638 -11.1011 476.004
100.035 -11.2404 474.106
-63.7554 19.6224 426.4
-7.43959 -11.2013 472.456
87.8135 -21.3108 476.28
-67.6011 -10.1246 427.043
20.806 11.7886 468.544
113.247 -11.4359 477.154
112.636 -11.1867 476.558
9.90297 -39.231 497.844
111.887 -11.1635 476.45
111.027 -11.1891 476.264
-29.0402 -47.3147 495.43
11.0857 -10.6935 471.585
31.9808 -19.412 470.368
88.8627 -11.1603 476.316
79.3753 -11.3851 475.033
34.6549 -11.4053 470.804
27.8763 8.61255 470.631
-56.8149 -11.9772 494.41
21.878 4.74213 470.208
106.908 -11.3531 472.313
-13.5608 -42.0366 481.86
-21.8898 56.1018 495.758
100.634 -9.79379 475.203
103.795 -11.3057 471.721
-1.82439 -111.82 471.768
96.9458 -11.408 475.255
60.0085 12.5922 473.752
62.9132 -5.17268 472.473
82.7944 -11.277 475.647
76.7398 -4.25099 474.883
76.8473 -11.2678 475.262
76.7683 -11.4007 474.951
-31.9966 -47.0109 497.632
75.8712 -11.2956 475.283
-27.0082 47.135 495.708
66.9034 5.80646 474.397
29.8019 -5.96041 470.97
-36.5418 48.3299 489.656
70.8856 -11.2922 473.345
69.8194 -11.3748 472.905
70.0301 -11.2196 473.228
19.8638 17.7985 468.22
66.1899 -11.3126 472.735
65.031 -11.2388 469.654
63.9092 -11.2326 468.67
61.8515 -11.2931 468.67
-12.5218 -114.079 484.997
30.466 34.2488 469.956
-72.208 -15.0545 423.02
-64.1371 19.4511 427.476
55.919 -11.2046 468.221
28.6405 -9.46126 470.871
14.9821 51.8726 497.438
-28.0975 -54.261 494.604
103.922 -8.20603 475.646
-104.991 47.5068 491.607
53.6128 -11.1311 468.362
53.2159 -11.3129 468.654
17.0709 40.5767 496.914
50.9258 -11.3285 471.656
69.984 -12.1195 472.917
25.9035 14.6682 468.654
26.9606 19.9979 465.314
-24.9344 17.0479 464.246
84.2259 -8.58276 476.1
72.8681 -19.1231 475.265
32.8812 -11.3009 471.522
-43.0712 61.809 428.772
31.9059 -11.3005 471.506
-22.1328 -54.6718 498.349
25.797 -11.3802 470.884
-71.7189 4.96392 425.302
24.8062 -11.2836 470.8
-9.47248 -38.1266 480.677
22.8459 -11.2763 470.49
99.4131 -12.255 472.315
19.842 -11.2512 470.01
18.9542 -11.2741 470.403
114.505 -15.7524 477.262
-67.5534 -14.0849 426.741
62.6773 -16.1007 470.63
14.7488 44.8175 496.506
73.1299 -7.58325 475.105
-51.5568 -18.885 488.146
19.9462 -8.32719 470.216
13.9106 -11.27 469.77
75.9298 -12.3441 475.351
13.8079 -11.2307 470.281
2.32454 -11.7054 473.105
19.216 56.6384 495.972
113.242 -12.0515 477.133
47.1942 -7.01258 469.754
-4.7187 55.9227 494.175
-56.0571 -12.4331 492.24
76.6572 30.4188 468.912
-72.4511 -10.6691 425.302
14.8309 17.6797 469.345
-18.0998 60.8356 493.653
-73.9155 -10.5227 425.302
106.808 -14.2958 472.19
87.8509 -12.069 476.2
5.63435 64.3995 495.571
84.7296 -12.2731 476.167
-15.6454 -55.2208 526.921
5.56306 20.4503 468.03
78.7611 -12.2437 475.028
-17.1896 -38.196 478.952
21.7734 29.5102 468.33
52.008 1.977 472.709
110.758 -12.5143 475.989
20.7402 -20.0791 464.922
46.8168 -12.3789 470.838
55.8767 -14.3681 468.301
34.5322 -12.4213 472.453
25.7981 -12.2654 471.151
-66.8518 -11.1394 423.692
21.0763 70.7224 526.443
22.8804 7.61563 470.367
62.8861 15.8058 473.728
15.0295 44.076 497.303
84.8246 -9.16436 475.852
23.2326 58.0342 496.957
31.7234 -20.2112 469.95
70.7802 23.7534 472.728
17.8018 62.2558 495.826
67.8143 26.4152 473.117
-73.3004 -11.1217 423.02
106.792 -12.2815 472.192
77.7268 36.9356 473.28
103.803 -12.2812 471.755
53.2269 -12.1266 468.61
102.793 -12.277 471.596
50.7267 -10.9239 471.014
-3.82691 54.1574 494.371
69.8129 -12.4689 473.229
101.815 -12.2765 471.574
26.7501 -11.1716 471.202
41.7693 71.1438 500.703
99.0082 -12.3059 473.646
97.9058 -12.3622 474.865
105.745 -10.7008 471.905
-4.10428 5.7014 467.789
96.8789 -12.3201 475.271
14.0345 28.7164 469.194
29.8482 -4.15922 471.35
95.1299 -12.4035 474.884
84.8558 -2.92745 476.186
94.0525 -12.6389 476.052
89.8075 -12.2779 476.359
5.49754 64.9339 494.767
84.8068 -12.3963 475.864
78.8075 -12.3912 475.308
9.10341 54.113 496.305
56.9189 -5.40453 470.583
72.7932 -12.3294 474.694
72.0363 -12.427 474.529
-7.25387 -47.6924 497.368
64.8086 15.9495 474.369
67.9255 -12.2734 472.797
27.895 -17.3178 469.579
12.1539 -42.3723 500.526
32.4559 -25.1363 470.652
-0.124255 52.0538 493.793
4.82577 43.6405 495.76
17.063 66.2114 496.683
66.1592 -12.3042 472.639
28.0997 -49.9528 501.362
65.6552 -12.2379 471.65
64.7173 -12.1677 469.39
-16.1403 5.76504 465.341
-68.3886 20.0653 426.452
61.9312 -12.1926 468.627
60.8812 -12.2303 468.436
58.7905 -12.1871 468.455
2.94088 13.7446 468.407
55.8364 -12.0616 467.962
69.1346 -74.9644 504.127
-17.1663 16.6625 460.818
55.002 -12.2499 468.232
30.8077 -40.1881 499.085
18.9792 -4.14338 470.327
54.05 -12.1212 467.93
26.8685 30.6405 468.599
53.7094 -12.2418 468.385
27.853 -19.2999 467.653
53.0498 -12.1775 469.326
28.947 -40.4013 499.596
36.898 67.9983 432.928
52.458 -12.3091 471.268
54.7513 -2.65879 472.153
32.757 23.7302 465.716
-54.4553 70.2691 473.876
50.9089 -4.23878 471.575
51.9057 -12.2818 471.78
34.8251 -41.3985 501.257
30.4812 51.4645 497.962
24.9058 30.6697 468.502
84.7823 23.7319 473.909
79.8361 -10.2142 475.494
50.9247 -12.2803 471.721
6.77746 20.7095 468.424
-67.5472 -6.83297 428.099
48.824 -12.2585 471.711
34.4721 -12.2372 471.631
33.8708 -12.2808 471.738
1.89785 7.60249 468.308
32.8737 -12.2723 471.415
70.6132 -5.48298 473.861
23.3727 -50.0705 499.952
-20.895 56.8222 496.46
-7.83086 -46.4662 497.304
33.9346 62.4444 269.805
29.5605 -12.3831 470.998
104.969 22.565 507.429
10.3016 23.7707 469.152
25.7827 -12.2581 470.869
90.3719 -22.599 476.092
1.16143 56.6448 498.282
20.9032 -12.2491 470.521
18.8217 10.4649 470.127
96.5999 -4.90441 477.097
77.8228 37.6509 473.053
19.1815 -12.418 470.018
17.3582 -12.4769 469.948
16.9925 -12.233 469.906
82.7986 -8.20642 475.671
97.7738 -6.25593 476.813
16.5351 -12.2929 470.208
76.3581 38.6289 473.061
38.9837 22.5758 470.222
75.7957 -14.1412 474.895
79.8741 -12.9812 475.081
81.7944 -10.1693 475.546
83.8005 -21.2326 475.779
78.6338 -12.979 475
11.872 -47.4492 499.541
76.6786 33.819 469.043
-8.96634 22.7889 467.24
30.0475 -12.8699 471.006
69.4666 36.8996 474.387
-79.1375 -14.7681 540.479
28.7676 50.6683 498.353
-2.32366 -111.417 474.203
66.9803 26.9616 474.132
85.7505 -7.21537 475.743
84.9985 -13.5064 476.296
82.3298 -12.9815 475.092
65.0228 -13.1019 470.599
-11.0692 -51.2409 495.661
27.8295 69.4194 436.237
45.5165 9.10202 475.034
-22.2897 9.65326 464.456
68.853 33.7325 472.566
57.4174 -13.2724 468.044
1.4994 53.8012 496.582
19.5439 -9.322 469.976
107.115 -7.05943 476.188
52.7344 -13.1084 470.839
26.9373 -13.0869 471.315
14.2101 3.0593 470.191
112.866 -13.3391 476.525
5.5262 -60.0848 497.347
110.088 -13.4312 473.637
108.825 -13.3058 472.351
12.2761 -41.5733 500.243
107.831 -13.3036 472.273
-85.9896 62.0526 496.249
106.73 -13.2715 471.83
106.849 -13.2514 472.219
101.82 -13.2514 471.599
6.78592 16.7353 468.568
99.8487 -13.2485 471.493
98.1615 -13.667 473.338
-31.2488 -52.5296 493.938
30.6433 -37.7253 500.61
94.7763 -13.4074 475.278
89.6046 -13.3869 475.935
88.6423 -13.3764 476.047
86.7744 -13.3377 475.917
16.6381 -51.8136 499.33
99.9067 -8.21958 475.411
94.827 -5.26762 476.512
3.45746 60.4091 495.383
36.4739 2.70722 472.317
25.0771 -87.1545 497.903
22.8733 43.7093 497.515
57.8477 7.72832 473.545
57.6617 -20.943 472.022
32.5841 29.0922 468.999
76.6165 -13.4709 475.042
24.3219 58.1838 498.238
31.7888 18.7414 465.537
71.9735 -13.3652 474.559
81.6405 12.091 476.799
70.9326 -13.3137 473.48
84.2457 -9.07669 476.212
67.9056 -13.288 472.902
77.0181 -19.1133 475.022
67.95 -13.2968 473.211
66.9604 20.5884 473.991
67.2591 -13.3378 473.222
4.75025 46.9814 496.791
18.1428 22.6378 468.273
50.9233 -13.2545 471.708
-29.5912 -50.9647 496.088
33.8656 -13.2533 471.666
1.93057 6.65257 468.414
5.62301 59.7635 496.822
32.8851 -13.2509 471.58
31.5929 -13.4395 471.075
27.7663 -13.2581 471.218
16.9204 40.9686 497.519
-45.6532 -85.1494 495.215
16.7833 -13.275 470.277
15.7745 -13.2 469.77
-26.3265 44.3765 494.926
111.327 -13.9992 476.322
20.8331 -14.3188 468.783
19.0556 12.8238 468.583
34.3063 -15.6019 472.702
62.9469 -13.2619 468.573
-0.636987 -46.5866 495.852
61.9322 -13.2993 468.584
33.6916 3.67226 470.936
58.7942 -13.2831 468.42
22.9802 53.6805 497.048
-32.5333 -52.0337 494.073
11.4191 -43.8426 496.681
8.35804 54.5237 497.714
57.8364 -13.281 468.346
56.6855 -13.2928 467.989
10.7341 67.4758 494.668
-5.06842 19.7057 467.569
28.1104 -13.8475 471.159
67.8499 0.595657 474.504
14.5464 23.414 469.289
27.2025 -13.8189 470.188
111.177 -13.2116 476.31
20.7013 -13.7753 468.703
18.8672 13.7018 468.445
18.5844 -13.8212 470.266
11.1759 -13.9728 475.423
73.8848 21.6068 473.317
-0.62184 -14.2266 484.06
-52.1763 -14.4484 491.607
20.8153 12.7286 468.543
93.7936 -10.192 476.61
-1.32544 5.09678 467.733
1.91213 8.72293 467.859
17.7835 42.6973 497.7
91.1044 -14.1146 476.065
33.8502 -4.23759 471.45
35.8235 20.5444 470.184
80.5136 37.6523 473.071
33.2928 -14.1213 472.178
15.7876 -13.9395 470.161
2.1866 48.0577 497.308
-52.1652 27.7652 475.311
-53.5328 -14.6566 490.079
-1.40378 44.0273 495.31
-24.821 -39.4394 492.948
3.96622 64.199 495.013
-0.874542 -14.2704 485.551
114.38 -14.504 476.742
15.0367 41.9133 497.548
-35.8107 57.4563 429.343
86.7322 -18.238 476.191
76.9266 -14.2894 475.063
20.9696 -14.2772 469.287
18.6964 12.6359 469.594
-57.2843 -14.964 491.862
-107.182 -15.0501 494.692
-30.6723 -43.6139 496.998
-10.1376 -36.2973 480.463
-51.9312 -7.34006 491.691
-107.282 -15.0283 493.975
-10.2802 -36.6488 479.748
95.2496 -11.5676 474.971
22.8973 32.7839 468.346
112.874 -14.4098 476.5
101.892 -8.19043 475.631
-24.1698 -117.187 484.489
107.68 -10.6215 473.807
-24.4857 -116.923 483.808
108.875 -14.2353 471.915
-74.8121 -20.791 424.158
-3.61539 -39.6553 483.17
25.7703 7.6809 470.643
-36.1994 46.5529 493.607
31.0257 63.3572 498.447
102.809 -13.2559 471.501
105.7 -14.282 471.848
15.5592 56.5918 497.816
88.6665 -5.08892 475.914
30.6539 -43.0839 500.783
-27.3967 -45.3444 493.482
99.8322 -14.2202 471.415
26.5801 -13.5683 469.918
20.9178 -26.4005 465.438
110.716 -18.2848 475.808
12.6728 49.9352 495.547
98.8531 -14.2175 471.562
98.1962 -14.4738 471.744
28.8612 69.1921 434.809
28.5269 65.5906 499.772
96.9706 -14.512 474.989
96.0224 -14.2817 475.197
98.8764 -5.15389 477.38
95.8585 -14.3646 474.848
-76.0107 -39.6568 519.124
34.7106 58.3438 499.607
94.701 -14.4841 475.193
-20.168 -55.2212 497.501
-25.7971 -56.6597 492.141
26.7651 -11.3399 470.843
33.0597 70.8128 393.859
89.7871 -14.3661 476.251
-0.891214 64.428 494.807
57.8443 9.68436 473.517
-22.2276 -49.4195 494.727
68.4851 34.5084 471.846
87.6904 -14.3653 475.855
77.6775 -10.0892 474.987
85.7166 -14.4051 476.185
-73.4762 -18.4307 425.302
63.7619 -13.2365 468.751
56.8127 10.5305 473.073
30.7748 -2.50615 470.966
70.3955 10.4297 474.043
79.8211 -14.3366 475.545
78.8604 -14.3233 475.415
46.6745 -10.5022 470.804
-72.8172 -13.3784 425.302
74.7119 -14.4458 474.827
6.95715 -46.2907 498.641
94.6969 -18.1628 475.248
9.92717 27.7384 468.638
30.7651 28.767 468.964
8.12415 57.2577 499.138
4.76321 56.1148 498.146
49.9726 -76.0318 502.576
69.2007 -14.4464 473.24
28.6595 -20.5317 468.202
65.9246 -14.2592 472.708
-20.3607 11.6936 461.127
80.978 35.0113 471.507
57.7826 -14.3609 468.064
24.887 57.681 496.679
77.8219 -21.2374 475.336
62.9151 1.64948 473.816
54.989 -14.3171 467.95
-3.87824 42.5943 495.503
28.9021 47.8291 498.673
54.0066 -14.1801 468.748
50.9074 -14.2558 471.786
-29.3 -50.173 493.342
6.32158 -39.6898 499.301
20.7351 56.5895 495.544
49.9241 -14.2141 471.58
-8.27176 20.5409 466.84
47.7802 -14.1911 471.603
32.8613 -14.2336 471.586
-45.8542 42.9605 491.884
30.2945 -14.5746 471.064
13.7295 -45.297 501.421
23.8185 -9.33238 470.501
60.9753 19.6751 473.615
30.9321 -10.3091 471.511
28.9103 -14.1911 471.381
76.7975 34.787 469.029
-29.0487 61.6867 431.012
28.9011 -14.4049 470.822
19.7941 -14.0724 469.194
17.9071 -13.1176 470.199
3.95745 15.599 468.37
-82.3333 -7.13185 554.482
27.1423 31.7667 469.146
15.7777 -14.2082 469.868
-74.1155 -13.1943 426.452
90.6006 -14.9732 476.002
89.6317 -14.9756 476.078
85.7891 -5.28746 475.748
84.8422 -14.9766 476.109
31.899 -12.272 471.404
62.8174 -14.2951 468.652
32.7211 0.996713 470.971
59.7972 -14.3646 468.418
11.8476 15.574 468.963
77.9616 -11.3824 475.389
62.8203 1.37079 474.156
-16.0187 14.3773 461.263
-28.1132 53.7131 492.638
-18.183 21.6906 464.821
-6.66271 3.90189 469.3
47.0204 -14.8367 471.661
-48.7774 -9.2215 471.045
25.957 -14.2966 469.507
33.8461 4.64967 471.393
22.8674 -14.2564 469.269
70.7707 -21.1734 474.664
21.7733 -14.1172 468.928
19.8974 -14.3522 468.91
18.925 -14.4843 468.858
13.9279 -13.1736 469.548
-9.08315 -114.263 485.782
18.0426 -14.747 468.811
-0.895227 -50.8053 497.035
17.8355 -14.226 469.736
17.8002 -13.2828 469.969
3.50836 15.7368 468.039
-52.436 -15.2473 490.079
55.8187 -19.4751 471.9
80.4815 10.7314 475.48
-55.1413 -15.5125 493.145
71.8542 8.72938 474.784
21.9087 -12.8524 470.367
34.6552 58.7658 498.809
95.0248 -14.1815 475.012
58.1321 -14.9619 467.959
62.888 2.71536 473.743
24.8412 15.0476 469.164
66.212 -10.3045 472.893
-52.7735 -15.6691 490.079
34.448 -47.4492 499.541
22.7667 -16.2015 468.859
-59.0748 43.5291 427.592
-53.1284 -15.5276 491.607
100.891 -19.2908 471.649
103.763 -15.339 472.127
103.791 -13.2431 471.589
74.771 -15.2206 474.953
85.7747 -11.295 475.861
-12.4739 -49.369 498.085
-52.4612 -15.8661 488.35
15.9075 46.7118 496.652
30.1349 -8.75961 472.376
-55.1833 -15.9066 493.521
30.1204 -46.7661 500.514
85.9479 32.7486 473.914
53.6871 -8.42515 469.601
-67.5852 -13.8259 425.554
14.961 44.6414 497.164
-7.12104 51.7294 495.573
-73.2344 -13.8551 426.452
30.9889 58.5023 498.446
-36.0464 -47.1072 493.258
113.713 -15.391 476.642
112.794 -15.3594 476.542
-55.6507 -28.2479 493.145
60.5839 -17.0507 470.575
111.898 -15.2932 476.394
25.7764 3.79234 470.755
111.473 -15.7072 475.893
-12.3415 8.87727 461.528
-6.61235 10.127 465.753
-9.24081 14.9096 464.862
111.063 -15.684 475.189
110.644 -15.251 474.448
16.1537 50.7037 497.648
-8.54297 49.5165 493.924
102.819 -14.2394 471.472
23.6598 -24.9543 464.995
-4.07643 53.3145 493.658
105.849 -15.2103 471.916
68.7135 -13.3249 472.765
16.7878 5.70952 469.696
24.6525 -39.2932 499.724
-16.0336 18.4535 463.413
18.9549 71.9046 530.484
104.911 -15.0967 472.175
88.8542 -14.3383 476.271
104.786 -15.2357 471.834
16.833 19.6878 467.806
22.6168 19.6323 465.42
100.818 -15.196 471.471
-13.0559 -118.324 486.228
15.6796 68.6412 497.56
107.763 -12.2553 472.321
-29.2959 50.179 495.427
14.9005 12.6197 468.99
94.3245 -15.4306 474.945
-17.0109 -50.1222 495.359
-17.3929 -50.1548 496.525
21.8232 -13.2791 469.602
91.8095 -15.3304 476.406
-55.165 -22.6992 488.841
91.3536 -15.7134 476.082
-6.25175 66.1494 494.302
88.8476 -15.3288 476.357
72.8147 21.7308 472.66
30.9222 -5.21066 471.359
26.8729 20.7715 464.785
87.8474 -15.264 476.308
18.2057 -19.7463 466.785
3.64982 -44.5915 498.36
86.7794 -15.4016 475.944
74.0542 -17.2064 475.21
86.8218 -15.1632 476.176
85.7074 -15.3463 476.134
11.5584 -5.08498 470.997
-6.24809 -37.0695 480.921
85.8311 -15.3391 475.911
21.9509 41.3532 496.993
15.3864 12.8632 469.036
19.9026 52.9526 498.412
76.8484 -15.3697 474.959
76.7846 -15.2587 475.323
27.9018 6.7097 470.717
75.8616 -15.5526 474.924
-33.1087 -50.9754 491.252
-5.0319 18.6805 467.383
31.9677 -13.2004 471.451
72.8952 -15.4381 475.176
71.8877 -15.3199 474.773
79.8239 -15.3263 475.513
-31.2226 -56.7235 525.713
69.7853 -15.5377 473.226
104.808 -17.2996 471.761
64.3765 -7.27764 471.206
113.659 -13.3363 476.814
91.0008 -6.24542 476.005
84.7994 -6.23361 475.731
-6.54011 -60.7901 496.813
3.87482 11.7423 468.5
77.0379 36.6491 472.736
64.266 -15.5847 472.182
-22.271 -60.7464 498.56
56.9249 -15.4457 467.97
27.0933 59.8541 497.149
-20.0692 9.61254 461.27
-6.14866 21.3737 467.078
53.7919 -15.3576 471.76
-6.15436 21.6619 467.512
-102.072 23.5316 494.692
64.9427 28.0827 474.453
18.1312 68.9366 497.837
50.9261 -15.2044 471.734
55.9221 -5.88819 470.379
17.5776 44.1532 496.727
49.9265 -15.3066 471.663
-36.8251 -53.4973 493.451
32.9676 -15.1906 471.649
38.9322 19.8593 470.252
31.8714 -15.5456 470.996
29.1279 -15.1258 470.559
26.2847 -15.479 468.978
7.88028 8.56731 469.263
87.817 -6.24848 476.238
23.8788 -15.351 469.299
22.9551 -15.2938 469.245
70.9885 -14.183 473.425
20.8458 -15.2449 469.229
5.00538 -46.1482 496.646
-5.06875 13.6347 467.604
15.1802 -15.5177 470.151
-54.1224 -40.9834 493.145
5.01851 60.4648 497.949
-0.637674 44.7638 496.386
-18.7689 7.1973 462.989
15.7569 46.8491 497.566
54.0912 -8.32564 468.549
-73.9358 -13.9996 424.158
-3.0125 9.43212 467.081
-15.2122 -36.9215 479
13.6407 16.6407 468.987
19.8193 53.5541 498.261
77.1513 -15.9209 474.936
9.37994 -37.2247 497.376
75.7879 -15.9179 474.847
63.1794 -15.6489 470.447
-67.8789 -14.281 426.018
63.196 5.41239 474.218
66.9062 3.78635 474.35
24.7557 17.5666 465.282
62.9015 -15.4181 469.582
-66.9331 -10.9338 424.207
27.8799 -0.362599 470.892
-50.7196 -9.9458 482.579
-36.1244 49.7645 492.59
58.7864 -15.3375 468.357
-17.2649 10.6221 461.139
3.26581 14.4037 467.924
57.8052 -15.3645 468.444
62.9493 2.71804 474.205
-20.1442 9.81621 460.846
26.8218 14.7345 468.839
12.0247 17.7199 469.342
33.6899 7.65493 470.913
54.9753 -15.2562 468.751
29.0757 48.7284 499.444
54.8107 -15.6184 469.53
-3.12945 -37.0932 481.717
-9.42723 -37.3252 480.482
32.1423 17.3339 468.739
24.7934 -6.17388 470.554
77.5178 -17.6377 474.927
26.8844 -15.3223 469.48
24.8406 -15.3906 469.394
6.54792 -36.9329 496.907
-12.6095 -43.6832 483.557
73.9192 -13.3306 475.289
-64.9841 12.8203 427.239
96.8521 -7.28394 476.595
-10.0751 -40.1644 481.794
4.71607 16.7002 467.94
29.938 64.0056 497.484
22.6906 -15.3876 468.879
4.75993 -46.5129 497.804
-5.06275 13.8942 467.049
33.9624 8.83612 471.319
18.8864 -15.3493 468.718
-8.90498 -113.434 485.837
29.7361 32.744 468.972
17.9146 -15.3465 468.63
20.0316 -10.5368 470.028
-46.2866 51.6329 429.324
13.0006 -15.7676 470.364
3.95435 -58.5552 527.538
-74.3549 -14.1472 425.302
-26.8555 42.2859 492.905
-108.291 -16.4797 491.607
113.834 -16.0796 476.003
60.5105 -15.9504 468.596
55.3287 -15.9567 468.781
29.9237 1.82526 471.355
30.0716 70.145 429.641
65.7738 24.5578 473.82
31.595 29.6764 469.3
18.5995 43.8658 497.469
-8.23213 -37.4697 480.744
4.23812 -40.5267 496.915
29.786 -15.4553 470.716
9.41868 -47.6967 499.43
55.0336 -15.9765 469.362
18.8706 43.9204 496.995
66.8959 -15.2646 472.843
15.9453 20.6759 467.664
75.8043 -5.20137 475.279
17.9971 -9.1706 469.995
-23.6234 -16.4768 484.06
-50.8753 -16.4768 484.06
-108.63 -14.7483 493.145
103.882 -16.3141 472.117
-31.9721 -57.505 497.252
64.0286 2.96352 474.295
107.91 -9.20578 475.948
25.9024 -41.3765 499.649
-57.2084 51.1698 426.848
99.9128 -22.2265 475.408
11.8496 -45.1712 498.604
19.8456 -15.3383 468.911
89.8637 -6.34913 476.242
111.915 -14.3539 476.43
-9.13562 11.6873 465.618
102.813 -15.2029 471.685
23.8545 -18.3674 465.445
2.702 -37.4363 497.629
84.8022 -15.3909 475.885
19.9949 -16.2121 469.166
75.8713 19.6083 474.82
52.6544 -13.3784 471.783
108.778 -16.2193 472.197
107.83 -16.1442 471.901
27.7659 -23.2647 465.788
-8.2824 48.4641 493.599
106.897 -16.3333 471.968
94.1271 -13.4926 475.808
-2.68076 46.8037 494.912
96.743 -15.3717 475.292
-3.06391 42.9649 494.86
32.5638 63.0868 498.345
104.784 -16.1602 471.895
48.8972 -13.2791 471.618
-17.0864 12.7281 460.773
103.797 -16.1615 471.73
101.834 -16.1767 471.665
21.8678 -14.5529 469.243
-2.95106 -62.0163 497.386
79.8044 -12.376 475.396
27.7057 -37.9851 498.929
17.1377 -53.8257 498.857
-50.0678 -11.6549 481.106
59.7601 -5.49914 468.975
-39.1571 48.497 493.934
89.8297 -16.3126 476.346
86.7697 31.6823 474.412
89.3856 -16.6968 476.077
86.632 31.6989 473.928
11.6795 -45.3253 499.594
98.1676 -14.2614 472.779
85.0386 -16.3929 476.176
65.9271 -1.31912 472.726
-0.214368 26.5704 467.677
80.8249 -16.3124 475.622
74.8607 -16.2487 475.3
73.8044 -16.2431 474.796
22.5546 53.375 498.992
71.8478 -16.3897 475.32
95.8112 -7.21725 476.671
19.9012 -3.29613 470.294
33.4134 44.3999 499.503
23.2443 54.2113 497.206
71.9281 -16.2168 474.821
70.97 -16.3454 474.445
107.908 -8.20009 475.848
68.9504 -16.1786 473.247
85.9198 -12.3903 475.948
0.849723 19.4935 468.273
67.9399 -16.2273 473.14
66.8312 23.7365 473.846
-5.75282 65.0048 495.308
16.1167 61.9211 495.198
29.8794 7.68528 470.912
62.927 -16.3954 471.65
-8.07679 -49.4815 496.632
21.8824 11.8698 468.074
22.3662 14.892 468.079
107.944 -14.1593 472.284
28.5341 -48.0269 498.395
46.9195 39.7713 487.051
52.9123 -16.1232 471.883
108.602 -15.0899 471.963
8.8635 22.6366 468.645
52.8688 -16.3787 472.22
12.9298 62.4817 495.586
32.8785 -16.1704 471.483
23.8181 50.7385 497.569
-17.9613 -16.3736 466.86
18.9012 -7.43097 470.247
27.1297 -15.7196 468.93
28.0925 -48.5159 501.232
65.1999 -12.3208 470.474
84.1192 -16.9468 476.192
0.902968 -45.3014 497.677
85.9107 -13.4537 476.171
62.8767 -16.7913 471.822
80.9618 10.5284 476.669
28.5918 -42.9223 500.91
107.842 -12.3395 471.99
60.151 -16.7111 469.568
56.8883 -16.6005 469.378
66.0091 -13.3108 472.708
52.8385 -3.27559 471.824
-6.8182 -60.9823 498.384
18.9193 -14.0422 469.538
-24.1349 -54.8928 494.542
33.6615 -16.1966 471.536
-77.2996 -16.6444 520.581
30.7005 -16.3445 470.656
-32.9424 -52.7907 496.393
28.3003 -53.2094 500.33
14.8015 -13.1979 469.694
-72.9636 -14.6232 425.302
29.1807 -38.3592 502.139
29.8691 -16.374 469.839
-29.2034 -40.1948 494.725
13.8551 7.62731 469.384
28.9011 -16.33 469.769
27.9 -16.3673 468.985
27.8794 -16.3346 469.474
25.9483 -16.3436 469.463
37.7648 41.2664 499.047
84.7439 -4.23974 476.248
24.9547 -16.3395 469.346
-20.0541 -61.2971 494.692
-12.3565 -42.4232 483.429
21.773 -16.2968 468.922
62.1431 15.9572 474.594
75.8534 28.9371 469.29
-7.80388 12.2743 465.081
19.8524 -16.3305 468.856
-2.95581 -49.6364 498.187
-6.84035 -39.7927 481.813
5.79152 -46.7953 498.073
33.8519 9.64266 471.475
18.8885 -16.3196 468.773
28.9309 -6.12295 471.311
14.4725 43.0484 495.822
-72.7939 -9.6701 426.452
14.8183 -14.3331 469.797
87.7221 -7.27776 475.991
-8.8427 -52.6663 496.428
17.9204 -16.3199 468.781
66.8448 -14.8842 473.173
16.9434 -16.3118 468.548
7.99984 29.3449 469.168
32.8634 71.5747 434.276
14.744 58.9877 496.34
26.7478 0.63154 470.733
13.8687 -16.3031 469.794
68.1944 -11.2192 473.211
88.3882 -12.6376 476.003
13.6105 -16.7427 470.456
22.8341 14.6529 468.421
21.7715 11.7506 468.461
89.3807 -17.1877 476.051
87.6002 -17.0874 475.996
-14.0681 61.6674 493.848
15.747 -8.55659 470.159
-10.8245 -41.9176 481.923
13.0855 0.26834 473.438
61.9574 -16.9117 471.781
57.8242 -16.9707 470.04
53.4817 -14.4398 470.638
22.8541 -16.9031 468.17
-79.3121 88.4972 499.393
78.5474 4.93673 475.591
-56.5781 -10.8612 490.146
-6.06368 -113.364 486.049
63.8453 12.6698 473.886
-71.9385 -6.56866 425.302
19.6158 50.4084 498.54
20.571 -16.9148 468.492
18.8439 17.7761 468.267
103.529 -17.1695 472.172
76.8635 -18.2959 475.225
-55.5698 -14.5391 494.692
11.7887 26.685 469.267
24.0192 -16.2619 469.202
-15.8136 -36.5521 478.483
22.8293 -17.0574 467.664
62.8724 13.7084 473.686
29.2695 -27.1783 470.232
-69.6784 13.3835 427.609
-82.2272 -6.83664 553.767
113.79 -17.3284 476.539
111.83 -17.3773 476.491
-17.1077 17.6104 461.393
57.0072 0.592572 471.987
110.365 -17.6144 474.3
20.8447 -25.1582 464.958
-41.165 -49.223 496.612
107.875 -17.14 472.273
20.8516 27.5799 468.001
70.7514 -12.2289 472.876
58.0187 -2.04825 471.952
98.1397 -17.1092 472.527
24.7992 -12.2528 470.667
18.869 -12.1825 470.299
-24.1708 -57.5325 495.277
70.5352 -14.3268 472.927
96.0502 -17.2229 474.987
27.2783 -51.9395 500.543
8.06486 43.02 495.495
-17.0393 -47.8992 496.184
25.7915 -38.3016 500.538
90.7885 -17.3212 476.342
89.8604 -17.357 476.36
87.8983 -17.4187 476.255
-38.7803 48.6644 495.639
-8.24135 -39.1141 481.883
12.8731 0.514154 474.622
77.8582 35.5425 469.728
77.6439 -11.2254 474.948
86.0623 -17.5371 476.193
85.6884 -17.2047 475.905
-0.125175 -45.4581 497.515
15.6971 -10.3716 469.876
-71.4992 6.39177 425.302
-0.296056 -45.1905 496.461
54.7685 2.71117 473.004
0.773235 -45.2718 496.881
90.7726 -14.3758 476.302
77.8749 -17.2342 475.395
60.8728 11.6349 473.727
19.7121 58.8174 497.501
76.9035 -17.2695 474.92
74.8758 -17.2827 475.284
94.7867 -7.22985 476.611
32.7601 47.6127 499.376
72.9105 -17.2679 474.875
70.8693 -17.2636 474.756
69.737 -17.1753 473.45
66.9402 -17.2986 473.2
64.9435 -17.1925 472.802
114.285 -15.3862 477.373
18.0883 -11.0217 469.998
-9.16533 21.8186 467.133
59.7377 -17.2865 470.706
58.8466 -17.362 470.774
108.681 -13.1863 471.884
56.4557 -17.5338 472.131
53.2935 -1.92739 472.201
54.978 -17.05 472.238
105.583 -9.7634 473.729
13.9227 49.609 496.766
53.9932 -17.214 472.277
77.0187 -7.34008 475.253
-2.1714 15.7285 467.792
86.8254 -16.3222 475.908
4.89483 -46.8291 498.433
-28.2572 -116.179 484.402
39.8409 66.854 270.168
-11.2462 11.74 461.511
29.937 -17.2809 470.225
-10.9763 21.8214 467.194
-25.8975 -44.0833 496.502
-65.8816 9.3229 428.772
23.6064 48.9079 499.433
24.8522 -17.2671 467.55
22.7761 -17.3275 466.575
21.4 -17.3841 468.099
-31.5582 9.93937 468.247
14.5711 -17.138 469.305
83.0995 31.8996 471.109
13.567 -17.1438 470.35
56.7398 -6.55183 468.038
107.689 -17.2827 471.931
90.8128 -16.3125 476.341
74.8732 28.8037 469.322
60.9716 -16.5528 469.662
-21.2834 56.8742 493.572
106.765 -17.2093 471.925
14.0201 -50.6412 497.947
-34.2191 -44.158 494.466
57.4301 -17.7774 472.123
52.8555 -2.31548 471.775
17.8974 54.0935 498.487
54.7743 -17.4835 471.97
52.9622 -17.2985 471.888
-31.2569 -53.3088 494.066
13.6916 -67.0097 495.368
-47.3879 58.5695 427.756
75.8705 -14.4007 475.364
-40.1893 -53.9075 497.235
52.3209 -17.6594 472.228
51.1613 0.390044 472.782
23.3113 48.5728 498.639
50.929 -17.2764 471.761
108.762 -12.402 472.56
80.8294 -21.2268 475.649
-3.21277 -65.8399 498.132
32.0283 -17.3195 471.515
-41.0361 45.9073 493.519
21.1578 16.7056 468.09
14.6197 59.7729 496.474
34.6169 -12.6073 470.288
-9.72687 12.7564 465.142
29.8364 -17.3504 469.916
21.3901 54.3244 495.895
24.0263 -17.3768 466.28
21.1036 -17.5804 466.891
-56.2092 -10.8389 489.139
40.0617 0.63832 475.814
-22.8939 5.78512 464.808
66.7915 -14.1012 473.141
16.9471 -17.2834 468.646
-6.02652 -113.234 486.425
63.9892 12.5867 474.262
19.9646 50.7851 497.604
11.8228 64.3896 497.472
30.9736 -12.2531 471.348
18.9488 -26.9818 465.791
11.7891 28.6409 468.881
13.9097 -17.357 469.745
-54.9761 -4.80025 491.668
73.9334 -11.4768 475.2
-54.2922 -18.4535 490.079
69.8899 -21.1873 474.767
38.3775 55.8422 500.314
25.1253 50.8974 497.727
88.8636 -18.0431 475.916
-54.3269 5.36873 492.689
108.211 -11.1026 473.451
-33.475 -43.7642 492.909
-4.99049 43.5604 495.82
75.7027 -18.1342 475.081
49.2295 -18.0097 471.82
57.9709 -20.3967 472.357
-37.2431 48.5849 492.24
26.184 -17.8326 467.182
31.8903 -14.1953 471.396
37.7288 9.56859 471.647
25.3829 -17.6582 465.764
53.0746 -5.58839 472.424
-10.1111 -113.467 485.917
-22.0859 8.75343 464.351
24.6222 61.3791 499.109
60.9063 7.76554 473.691
9.77744 8.70738 469.195
28.9624 29.8311 469.191
-52.1187 -18.5274 488.687
56.6011 -5.79376 469.294
10.7973 -45.2074 497.585
-19.2257 59.622 493.105
36.8733 27.7975 469.635
76.7142 -18.1787 474.963
-8.78452 8.20916 466.131
54.6338 -16.5606 472.192
69.6406 -18.0893 473.904
35.9438 52.5833 498.815
-55.1413 -14.4936 493.145
23.8338 3.79009 470.461
29.9719 -10.3311 471.346
32.2721 -18.12 471.518
56.8253 -8.23459 468.288
13.9112 12.75 469.327
27.2026 -18.0016 469.491
20.53 -17.8923 466.642
27.331 -21.4055 466.166
18.596 -17.9643 468.519
0.644892 61.6248 496.933
30.8867 -21.348 470.202
-51.8821 -18.9117 488.836
18.9044 8.64522 469.768
20.9056 -10.3061 470.574
19.3152 8.52582 470.318
-74.722 -16.1322 425.516
13.8061 -48.3493 499.509
115.026 -18.7956 479.434
112.762 -18.322 476.562
31.8615 12.8639 469.06
32.999 -20.6748 471.465
105.225 -18.2651 472.123
102.597 -5.88075 476.34
96.8579 -18.2176 475.339
-16.4397 3.02392 464.744
95.9088 -18.1655 475.259
26.9298 -53.4394 501.275
-101.583 -5.83838 493.557
92.7936 -19.2971 476.531
31.9281 -10.3501 471.474
33.5805 70.0447 370.432
99.9259 -9.18273 475.335
95.0015 -18.4361 474.957
-22.1158 15.7173 464.403
22.9012 -17.5411 465.848
75.8351 28.58 468.987
90.7764 -18.3029 476.279
73.8835 -15.5622 475.217
84.8875 -21.3713 476.133
-43.277 44.4542 494.368
88.8035 -18.3406 476.346
30.9885 2.7985 471.258
87.9222 -18.317 476.29
18.3843 -41.3644 497.73
87.6536 -18.2754 476.019
3.61002 -50.2106 498.778
62.0764 -16.3753 470.374
21.927 65.6166 497.619
85.9635 -18.1765 476.191
-54.1552 -5.04869 491.132
22.1949 65.7021 496.71
85.767 -18.3182 475.94
81.7902 -15.3265 475.521
83.8176 -18.3138 475.923
29.1279 70.3613 425.581
6.50994 45.6992 494.025
-67.0384 -7.24411 426.27
21.795 55.425 497.345
51.9438 -1.35087 471.652
80.815 -18.2754 475.564
73.8601 -12.3236 474.729
67.0449 8.5112 474.012
77.8221 -18.2749 475.337
-94.6212 25.7504 493.145
-103.536 38.2312 493.145
74.9953 -18.2332 475.263
56.8461 -1.23053 472.191
74.6903 -18.2799 474.885
73.6462 -18.3255 475.27
59.8381 -8.67973 468.069
32.6024 -6.54482 471.013
0.131076 62.392 494.875
101.844 -11.3054 471.711
32.901 5.84834 471.516
-16.8958 49.8324 492.006
72.049 -18.3864 475.26
5.64281 24.919 467.965
60.8043 -3.29831 472.397
32.921 -6.13536 471.595
23.4345 -12.8454 470.112
-6.04941 -50.4571 498.668
71.8348 -18.2193 474.842
2.17937 17.5547 468.167
19.592 54.822 495.762
70.8663 -18.2436 474.737
-0.252288 54.0646 494.689
17.5809 46.3426 496.82
67.2544 -18.1434 473.189
66.8215 -18.192 472.864
100.614 -16.7651 471.086
32.9094 -18.217 471.451
76.596 21.0349 473.021
26.5936 -18.6862 465.902
-23.1725 15.7492 464.444
33.7674 -0.381624 470.862
25.813 -4.17955 470.787
23.8435 42.8229 497.531
19.081 85.1796 489.227
34.1089 46.6462 499.613
33.5408 60.9323 497.566
-56.6732 -19.5097 497.65
-58.0077 -19.2699 491.534
83.8732 25.729 473.743
86.7639 -5.26035 475.859
30.8353 -23.2742 469.867
-5.04228 21.6535 467.39
107.981 -18.2019 472.291
104.738 -18.3923 471.812
-2.10487 49.8519 494.722
-54.0367 -31.9137 494.692
96.7963 -4.65558 476.85
25.009 50.2929 496.552
-6.55179 -45.732 497.701
100.859 -18.369 471.66
-9.97369 52.724 495.296
-27.9705 45.498 494.612
99.5208 -18.331 472.247
-26.2412 -115.389 483.925
-4.89923 -112.48 486.753
98.894 -18.321 471.849
14.5772 11.9735 468.98
15.9075 45.8139 496.652
14.7335 47.4178 495.988
58.6362 -18.261 472.017
-2.67007 60.3656 492.939
-18.6203 4.94958 465.249
61.3533 7.61608 474.174
56.8727 -18.3003 472.331
55.6996 -18.2574 471.924
-40.1426 43.728 491.942
11.8229 -50.292 498.563
53.7466 -18.1754 472.325
76.7447 -10.2398 474.872
27.1376 47.9294 499.54
31.6809 -18.5057 469.974
11.6994 65.703 497.691
65.8133 8.755 473.958
53.4104 56.4065 500.735
34.0203 50.4686 500.841
33.5426 50.3341 499.506
29.7981 -18.297 469.812
16.7915 6.69655 469.799
27.8098 -18.5546 470.19
-1.1535 -47.2747 497.704
17.8885 -18.2249 468.581
78.8497 -22.2055 475.562
14.7899 -18.3275 468.443
114.397 -19.1446 478.873
35.7996 71.831 418.771
-69.0394 21.4763 519.124
108.796 -19.0241 472.804
-11.9714 -38.4272 481.333
90.8433 -19.1521 475.985
-16.1592 68.9063 431.612
1.87762 27.5974 468.298
80.8133 -17.2925 475.554
20.0129 18.9445 468.452
26.8188 7.66603 470.559
17.8416 23.7276 467.936
63.6696 -19.0395 473.187
52.9674 -11.2479 469.312
74.899 28.5969 468.822
26.2285 65.5211 526.161
76.8919 -13.3125 475.228
111.11 -16.6728 475.392
24.3005 31.9366 468.084
25.724 -18.383 465.842
-7.33513 -55.5925 498.526
-54.3771 -8.12589 493.145
19.9447 -18.5951 465.731
13.2367 60.7529 497.502
60.789 -0.272462 472.372
97.0397 -11.2623 475.027
30.8222 56.7627 499.319
13.9647 47.1607 495.978
-10.4535 42.3623 493.794
96.0823 -10.5951 474.973
107.048 -15.2626 472.277
76.9146 -21.0337 474.989
86.8828 -19.0913 476.222
31.9972 -14.5744 471.058
37.8781 9.82782 472.183
86.212 -19.1609 476.205
56.9769 11.6681 473.625
54.8577 -14.4109 468.378
32.7401 -40.6046 501.043
-6.05506 65.901 493.876
15.4813 63.216 495.323
88.3991 -15.7127 476.062
-1.99198 5.70653 468.208
11.8899 49.872 494.92
66.5657 -19.0406 473.216
-55.4557 -9.1546 493.677
18.3989 42.7338 498.126
15.5928 -19.0709 467.961
7.46822 -11.9693 473.876
111.946 -19.2892 476.335
