ply
format ascii 1.0
comment Created by Open3D
element vertex 1942
property double x
property double y
property double z
end_header
-42.5408 33.0148 548.244
23.1343 -7.63107 548.195
88.3869 -57.1401 548.448
32.9353 -6.40339 547.944
118.292 37.9329 544.668
29.1138 -6.4043 548.019
-89.2009 -53.1232 552.063
121.31 -6.42894 546.059
-39.5914 63.3159 547.154
-85.312 -53.1713 551.963
50.7745 -35.8942 548.511
-40.9981 74.1553 546.809
38.9491 -6.5926 547.786
111.129 46.474 544.504
22.3346 -11.7664 548.295
-67.5884 -6.47554 550.016
-66.8692 -7.19546 550.021
49.9076 -34.7417 548.445
-13.1826 -55.7555 550.474
122.744 -6.34204 545.953
-58.8972 -6.50173 549.801
37.1307 -6.4012 547.763
99.2044 44.2153 544.776
76.7328 -16.3282 547.251
-25.9404 -11.787 549.271
-86.458 -53.1652 551.901
-17.9289 -55.628 550.53
-10.8638 -55.7569 550.379
-21.1018 -55.6336 550.586
37.7027 34.6172 546.353
-44.2383 38.1607 547.938
-65.0048 -6.38703 549.841
130.687 -6.33889 545.698
-68.8725 -6.61831 549.923
117.388 39.6274 544.444
-57.3268 -6.61499 549.647
-24.8543 -59.1041 550.693
24.5533 34.0585 546.56
-42.8974 36.2461 547.913
74.932 -55.9101 548.452
-80.6939 -64.0134 552.005
-92.9265 -55.775 551.989
72.5099 -57.3412 548.54
-91.9498 -54.0331 551.909
-89.1145 -66.2102 552.246
-55.8854 -8.34135 549.624
125.094 -6.42493 545.729
73.2667 -56.3772 548.473
-49.2944 41.9753 547.803
30.914 -6.59168 547.71
-81.3697 -65.219 552.013
-76.8108 42.4003 548.356
-45.8375 79.2612 546.482
-74.8569 -13.9188 550.173
122.861 34.7063 544.38
-92.5226 -54.608 551.878
-71.1136 33.8503 548.492
-32.6523 80.9201 546.091
119.019 -8.47409 545.825
-7.54673 -58.1811 550.143
51.3192 -37.3085 548.188
-44.6893 76.5858 546.444
66.9901 -59.7809 548.587
-9.21021 -56.2866 550.083
22.8912 -10.0359 547.874
23.4593 -6.59208 547.743
-70.5754 -6.616 549.731
-23.4971 -57.9225 550.425
39.9648 35.4521 545.993
99.3822 42.3682 544.501
99.1198 48.1675 544.311
-82.7027 -65.5918 551.909
-93.0932 -56.9151 551.835
99.2422 46.1194 544.358
-72.412 34.1715 548.381
-83.4424 -11.9494 550.116
22.2501 38.0408 546.221
-42.6428 90.034 545.875
119.428 36.1919 544.216
86.4726 -56.2865 547.965
22.8241 35.945 546.256
43.3585 44.2765 545.53
38.7472 34.0921 545.955
-17.2107 -17.79 548.842
-41.0282 75.582 546.258
-19.0679 -55.659 550.126
-79.769 -61.5122 551.603
99.3995 38.2471 544.507
99.2866 40.0552 544.445
121.312 34.8572 544.145
-14.4561 -55.5744 550.002
-84.9193 62.7904 547.568
99.0817 49.858 544.102
135.254 -7.13263 545.219
86.7792 -13.801 546.464
132.757 34.9161 543.877
111.597 44.153 544.009
75.6954 -54.8019 548.038
-117.314 42.5382 548.901
-37.2275 75.7743 546.099
96.7532 58.6595 543.824
-4.66403 -59.5922 549.877
124.134 34.7548 544.026
80.8392 -54.7876 547.895
71.4124 -58.2629 548.202
-79.7326 -56.8653 551.352
-22.6675 -56.3053 550.109
117.865 37.887 544.013
-47.6327 41.5609 547.383
100.517 28.427 544.678
84.8265 -16.1616 546.478
43.5141 -20.3484 547.488
-75.7974 41.6037 547.946
-50.5013 41.563 547.411
-77.498 -14.6779 549.834
-43.2652 75.6499 546.117
-85.5549 -65.563 551.666
99.4498 30.797 544.559
76.8166 -54.6397 547.849
99.3574 36.2015 544.366
-45.7853 83.7437 545.859
82.5342 -54.7703 547.722
-80.33 54.1881 547.553
99.7556 25.6702 544.671
94.99 63.4635 543.51
-3.79896 -59.5696 549.668
13.7268 -34.7435 548.474
-41.7625 88.2709 545.577
44.7629 42.8256 545.241
-83.1582 -52.6551 551.097
130.886 34.8272 543.675
-45.7824 82.5953 545.824
77.9485 -54.7721 547.741
134.277 35.0104 543.574
-13.8713 -54.3877 549.652
32.8817 -5.62907 547.05
28.5235 32.8717 545.868
28.6846 -5.6298 547.125
-17.0384 -54.3927 549.703
96.1261 60.6164 543.498
22.2999 -11.7478 547.444
-14.4456 -54.3828 549.603
126.866 -5.53186 544.997
-38.9868 75.6721 545.819
13.1512 -36.4631 548.422
36.6909 -5.62753 546.904
-78.9095 -14.6728 549.641
96.6885 59.7585 543.461
112.664 43.5551 543.656
-48.4703 41.5418 547.131
-69.7645 32.4196 547.883
99.4074 31.6389 544.327
-70.7689 32.5631 547.885
84.2183 -54.7465 547.484
-19.0088 -17.7984 548.424
113.795 42.4138 543.622
-74.6163 39.2909 547.7
138.985 -13.5959 544.927
66.5019 -58.8091 547.945
-61.1728 -5.07311 548.869
131.066 -5.60613 544.818
-10.9894 -54.9432 549.452
45.7876 -24.9241 547.251
96.0958 61.4507 543.327
23.3738 34.5788 545.747
34.2206 32.8535 545.565
-20.8948 -17.6747 548.4
99.4566 20.2488 544.596
-83.1286 -53.9342 550.901
30.8677 -5.72291 546.892
74.6962 -16.6817 546.326
99.7253 22.2411 544.505
27.0056 -5.58043 546.96
-18.472 -54.3761 549.535
99.5705 24.0912 544.439
97.2993 15.8816 544.757
123.1 -5.60707 544.914
-63.2139 -5.39232 548.846
77.0242 -17.3712 546.27
124.704 -5.79688 544.856
38.8685 -5.72052 546.659
110.335 46.38 543.403
-81.3805 -54.1699 550.783
-111.704 44.2035 548.17
128.857 -5.55767 544.725
34.8653 -5.72117 546.719
132.992 -5.65872 544.639
136.746 -7.90901 544.625
50.9544 -35.8188 547.351
40.361 -10.0146 546.715
24.7962 32.8561 545.609
86.2635 -15.7163 545.914
-107.568 43.5246 548.052
-26.9613 -9.60938 548.101
135.032 35.5538 543.18
-89.0853 -54.1238 550.873
-36.0369 77.6747 545.387
74.4669 -55.3159 547.445
95.3216 12.0403 544.757
-112.876 43.9099 548.087
24.8508 -5.72212 546.813
134.788 -6.09709 544.491
83.4063 -16.8602 545.921
-24.2273 -58.4063 549.553
-86.5193 64.4212 546.809
87.3686 -12.8527 545.675
-115.227 43.5272 548.086
-82.3037 -12.9368 549.246
-57.081 -5.86268 548.472
-59.2174 -5.45274 548.501
23.0742 -5.89365 546.774
-65.2941 -5.26232 548.619
-66.9913 -5.5693 548.664
-19.0386 -54.9261 549.28
22.2145 37.4088 545.346
-11.5324 -18.6429 547.912
-45.5123 39.5629 546.702
-55.4212 -7.63431 548.444
-82.2718 -8.33237 549.033
114.282 41.2457 543.231
-87.1974 -53.9805 550.638
-12.8703 -18.1639 547.881
78.6898 -17.5747 545.92
98.9258 18.5278 544.291
137.524 -9.97236 544.412
-79.7676 -58.0848 550.599
-47.1591 40.6053 546.642
-84.7893 61.8356 546.73
87.0021 -55.5947 546.966
84.2375 -17.4264 545.751
-84.9943 -54.09 550.53
-94.11 -63.1783 551.021
-4.65636 -58.9194 548.973
-117.113 43.613 547.961
96.5724 14.2563 544.41
-9.2548 -55.0833 548.936
-81.5914 -63.7957 550.747
-43.5657 34.0671 546.697
75.0162 -17.2397 545.878
-71.294 -6.31562 548.613
27.9184 32.8324 545.215
40.5584 -7.7189 546.286
-83.1121 -64.8822 550.791
60.445 16.2711 545.068
-37.1617 76.7816 545.128
-1.20661 -59.1936 548.852
-43.7873 35.8927 546.608
-42.9925 32.9211 546.688
-55.7446 -6.59805 548.24
-86.5769 -64.8854 550.818
40.1224 -6.14483 546.194
-28.734 -7.73867 547.704
-37.3221 88.5093 544.701
48.0414 -30.0576 546.814
137.867 -11.1097 544.266
94.5871 10.2662 544.469
138.581 -12.321 544.272
87.8891 -12.8453 545.359
-3.21852 -59.1901 548.818
-108.44 43.8732 547.628
-84.2525 -64.8721 550.705
99.5251 37.8452 543.412
108.482 53.9892 542.673
-14.9045 -53.7328 548.839
83.3506 -17.4202 545.557
39.6869 33.5677 544.795
-39.3434 76.5793 545.042
111.945 43.497 542.93
80.9626 -53.5322 546.791
-80.7611 55.8099 546.59
-41.1199 89.828 544.626
119.1 -7.40762 544.45
120.675 -5.63934 544.354
-16.9769 -19.2097 547.713
99.5261 36.1384 543.417
-69.121 -5.608 548.365
130.986 -4.5543 544.093
-41.2645 76.5402 545.036
131.055 33.761 542.803
-42.9608 76.3932 545.074
38.5381 -4.85613 546.031
126.695 -4.45973 544.15
63.5465 -56.4372 547.201
-43.9794 86.9931 544.73
109.075 47.4648 542.794
122.189 33.2664 542.98
120.864 33.8989 542.987
-39.117 89.2427 544.534
25.6246 33.6756 545.001
82.8227 -53.8398 546.682
44.195 -22.4084 546.457
-81.1314 -55.883 550.212
97.9273 16.8095 544.019
136.37 -6.54677 543.978
98.8444 53.1492 542.799
26.9408 -4.62922 546.229
-79.8664 -59.0604 550.286
79.9205 -17.9909 545.54
85.0864 -53.9445 546.615
-28.1509 -8.88272 547.517
-20.4175 -19.209 547.695
-68.8935 31.4147 547.041
-85.2986 63.5062 546.325
72.7727 -55.6445 546.918
-23.6283 -57.1982 549.006
-18.9822 -19.2075 547.651
22.2602 -10.0101 546.469
37.3989 33.5622 544.702
26.7636 32.8164 544.95
37.0092 -4.66513 545.971
32.7258 -4.41177 546.047
30.8221 -4.57077 546.084
128.69 -4.83824 544.02
-79.9654 -61.5596 550.307
76.8871 -53.5253 546.719
-44.8649 38.2339 546.258
-81.0992 -62.1643 550.343
93.9853 8.55342 544.284
-63.0397 -4.1566 548.025
48.9785 -33.4816 546.622
34.8174 -4.56975 545.964
46.2902 -25.7448 546.42
-41.3019 87.72 544.522
-12.9831 -53.7089 548.595
-76.9247 41.6587 546.785
-72.2236 33.5099 546.954
-17.5812 -53.4292 548.671
43.4221 -21.7359 546.331
108.458 50.5689 542.554
-91.1438 -63.122 550.53
40.1414 34.7855 544.515
-22.4186 -16.9103 547.544
133.1 33.7586 542.576
-61.3562 -4.10813 547.939
-90.9752 -54.2123 550.21
-83.5732 60.353 546.265
-75.52 -13.5665 548.537
-48.9575 40.7069 546.176
94.7797 65.5945 542.307
23.3906 -4.85708 546.139
99.6459 46.104 542.832
-19.0884 -53.6417 548.641
-28.7152 -8.30674 547.344
-71.3903 31.8529 546.91
125.251 33.249 542.696
122.986 -4.36347 543.987
-88.9513 -55.5901 550.163
-82.5854 -11.7724 548.571
-50.6723 40.3254 546.168
-33.114 86.0663 544.281
98.8085 51.9938 542.602
79.0332 -18.3647 545.331
99.6183 42.3562 542.888
-73.8428 -11.7675 548.346
95.6305 62.4711 542.303
22.2491 -8.28958 546.195
-86.3905 67.184 545.994
71.1321 -57.5393 546.781
23.3317 33.6611 544.764
119.579 -6.26265 544.038
78.9125 -54.0736 546.473
85.5639 -16.8348 545.099
-81.6152 -12.3445 548.484
-92.7692 -63.5193 550.403
24.6408 -4.74126 545.962
-85.1033 -63.8957 550.24
28.7678 -4.6097 545.859
86.5485 -54.1678 546.27
-25.8437 -11.1701 547.224
124.767 -4.15312 543.805
121.397 -4.69469 543.888
-12.6626 -18.0445 547.165
132.87 -4.64513 543.64
-65.2884 -3.80659 547.805
-21.0223 -53.7014 548.517
-67.0343 -4.15516 547.842
-11.0808 -53.6217 548.29
-21.8375 -18.6238 547.35
45.4997 -23.7276 546.091
-9.43459 -53.9622 548.251
126.056 33.2364 542.49
134.763 34.5203 542.261
-80.9017 -59.8652 549.942
-85.5256 -55.5624 549.886
-74.7824 -12.1473 548.22
74.9015 -53.8787 546.432
24.9659 32.1566 544.641
99.5524 48.1043 542.528
-24.5317 -57.6202 548.64
91.4563 -58.0498 546.2
-80.8601 -13.4087 548.369
-83.1357 -55.4391 549.805
-76.761 -14.0624 548.272
-7.90266 -55.966 548.197
-23.2238 -55.7108 548.511
-58.8281 -4.00958 547.55
-79.2104 -13.8995 548.308
35.2843 32.2107 544.351
88.0183 -56.33 546.161
-6.78243 -57.6072 548.208
118.38 36.0747 542.458
54.8749 -43.77 546.441
112.868 42.3159 542.36
76.6632 -18.2055 545.127
-72.1781 32.1537 546.61
-68.3093 -4.29755 547.715
-86.9523 -63.48 550.064
-92.196 -56.1427 549.93
-81.1451 -57.769 549.747
-93.0667 -61.9238 550.125
87.5578 -14.085 544.72
-17.3273 -19.9257 547.129
-87.0389 -55.7925 549.79
-37.1879 77.6448 544.321
56.7793 -46.0565 546.411
110.677 43.7296 542.29
-111.054 44.735 546.947
93.9095 7.12268 543.845
117.214 38.0532 542.322
-93.1576 -57.7435 549.94
-91.2547 -62.1061 550.041
22.1754 36.2029 544.387
38.8984 32.2512 544.162
-39.1002 77.8053 544.305
83.153 -18.3496 544.885
-1.34848 -58.3824 547.978
99.673 44.1885 542.449
40.387 35.606 543.978
-82.859 -63.9685 549.877
-91.247 -55.3198 549.764
-19.1252 -20.087 547.063
-85.8283 -57.8481 549.717
-108.947 44.6671 546.816
-105.98 43.8047 546.771
-88.1587 -62.4729 549.891
115.573 -13.3817 543.952
-115.029 44.4604 546.918
-70.8739 -4.29656 547.589
80.8162 -18.3956 544.84
-2.63922 -58.8068 547.924
-85.4262 -61.9665 549.776
-13.5411 -52.4965 547.935
93.8793 7.6897 543.67
36.9749 32.1935 544.063
99.6928 40.1654 542.468
99.1031 50.2466 542.142
-89.0181 -63.0458 549.866
-19.0899 -52.1204 548.003
-86.393 -58.9919 549.648
85.1045 -52.8647 545.813
-64.9393 -3.60689 547.349
-93.0783 -59.9124 549.795
-82.3431 -58.1138 549.508
-85.7012 -60.027 549.641
48.5308 -32.2927 545.879
-46.3296 38.5645 545.538
-33.0885 80.5898 543.862
-27.5381 -10.1583 546.737
99.4601 19.6231 543.057
135.583 -5.39886 543.109
-14.8581 -52.2577 547.838
-42.9344 77.6384 544.133
-81.1876 57.4238 545.61
-57.0678 -5.15249 547.161
109.468 46.5376 541.925
74.9302 -18.1563 544.794
-91.5659 -57.2606 549.604
-91.5805 -60.1478 549.692
23.4211 32.3149 544.19
84.9771 -18.029 544.54
66.869 -58.3419 546.255
-81.5044 -8.31273 547.739
119.433 33.9685 542.082
86.9596 -15.9325 544.418
-80.7371 -57.8092 549.348
-71.715 -6.01521 547.444
73.3132 -54.2139 545.968
-33.649 82.2761 543.716
80.6368 -52.4013 545.749
100.136 36.1845 542.404
-22.9151 -54.2236 547.993
38.0859 37.8621 543.656
-13.2233 -20.3177 546.663
-44.6841 78.7184 544.049
111.363 42.4721 541.943
86.2178 -52.8465 545.625
-21.1793 -19.8138 546.804
-80.6205 53.4273 545.639
-59.1444 -3.63801 547.067
-86.96 -62.4392 549.594
114.008 40.5794 541.93
-36.4807 89.6408 543.491
-10.9533 -52.4688 547.646
-81.7515 -60.4035 549.4
-113.304 44.6074 546.589
100.089 41.8452 542.154
-44.0327 35.9841 545.391
100.167 38.0493 542.267
-45.6087 86.2677 543.753
33.0471 -3.51589 545.055
-84.0646 -62.4259 549.477
99.0583 18.2915 542.934
125.059 -3.31353 543.093
28.9952 30.7652 543.995
-79.4551 55.1257 545.483
122.93 32.3926 541.949
96.9322 58.1406 541.642
57.1128 -47.1611 545.951
-40.9694 77.5574 543.898
-5.792 -58.203 547.641
132.117 32.6219 541.72
-20.1329 -52.4792 547.754
-47.164 39.6882 545.279
100.107 46.2557 541.941
-81.4543 -61.2593 549.335
-133.938 -9.18934 548.718
-60.866 -3.33711 546.97
-108.991 45.603 546.366
-17.836 -52.4717 547.676
-83.0471 -63.1371 549.408
129.847 33.189 541.717
-35.9038 89.0523 543.372
-74.3644 38.5867 545.852
131.123 32.1962 541.715
73.2798 -17.8453 544.587
-69.0248 30.2357 546.003
-90.7787 -56.1625 549.319
100.338 22.1983 542.678
100.541 30.1393 542.411
19.3756 -20.8575 545.808
-75.1201 39.5361 545.805
-92.9735 -58.392 549.42
79.3559 -52.8428 545.586
-45.6164 79.733 543.846
-135.625 -5.74031 548.568
-67.8028 30.0183 545.947
30.8084 30.9263 543.824
122.928 -3.52974 543.012
26.6865 -3.54284 545.041
-89.636 -56.2161 549.24
77.0695 -52.4611 545.578
-45.0337 82.841 543.686
-107.026 44.4071 546.262
120.796 32.6286 541.831
74.5062 -52.8473 545.633
28.7934 -3.51528 544.967
-85.0014 -57.7889 549.156
-71.2334 30.3042 545.951
-79.4314 54.5382 545.321
-69.161 -3.66741 547.027
36.7068 -3.64099 544.786
-87.7546 -56.6396 549.163
-112.182 45.4831 546.3
34.9062 -3.3784 544.803
32.852 30.8064 543.716
-15.4111 -20.4997 546.431
-11.3562 -19.9233 546.323
128.595 -3.59619 542.817
19.9412 -19.7085 545.646
100.605 24.1472 542.488
-26.7563 -11.5336 546.361
38.9678 -3.75158 544.712
-84.9585 -56.0535 549.057
-93.2602 -61.8434 549.414
-87.1771 -57.7882 549.15
-84.8373 -59.6787 549.157
-117.159 44.5367 546.389
-45.0233 83.6757 543.561
-84.5961 -61.5309 549.192
40.2089 -4.38776 544.654
-24.147 -56.492 547.732
24.9374 -3.70532 544.948
-45.4335 37.6752 545.068
-57.1145 -4.09898 546.696
40.6294 -5.98446 544.687
30.9128 -3.37828 544.805
137.671 -9.56327 542.747
34.9492 31.0258 543.572
132.839 -3.61881 542.645
100.43 31.8532 542.154
27.1593 30.9212 543.733
43.7204 44.0655 542.93
36.3621 33.2933 543.419
127.081 -3.3653 542.708
56.5018 -44.8432 545.572
101.011 27.8265 542.227
-70.3345 34.5714 545.628
39.7748 31.5849 543.397
-71.1537 -3.55492 546.906
-50.2805 39.9547 545.017
-82.9697 -56.4682 548.896
-85.0953 61.9281 545.023
-90.8589 -59.6293 549.157
82.9342 -19.8174 544.164
-93.2263 -60.0956 549.215
23.8564 31.0344 543.722
-45.0155 82.2385 543.466
45.6014 -23.1106 545.027
-87.2181 -59.8471 549.046
-79.4393 -13.4651 547.343
-43.4344 32.8225 545.05
-67.1572 -3.37399 546.74
-88.9045 -62.9651 549.162
100.852 25.8377 542.208
78.8097 -19.8832 544.181
-89.1844 -61.8101 549.116
43.8839 -21.3958 544.96
-90.5278 -61.4276 549.126
95.9911 12.5075 542.735
134.796 -4.02946 542.46
51.9035 -36.2542 545.279
65.0861 -57.4248 545.696
-114.763 46.2638 546.064
71.3462 -56.2618 545.5
-83.3373 -57.806 548.822
43.5936 -20.5377 544.901
112.194 41.6729 541.392
97.662 15.912 542.545
-87.1242 -61.6072 549.018
24.8468 30.8846 543.59
8.81213 -44.6265 546.421
-89.1535 -57.7648 548.926
-111.297 45.8636 545.967
86.1325 -17.5565 543.884
109.921 43.3716 541.365
100.083 20.5431 542.325
-22.6498 -18.585 546.211
22.1954 -7.12818 544.879
69.6365 -57.4075 545.531
-13.2669 -21.5545 546.097
118.876 -5.82208 542.777
120.793 -3.75333 542.666
-64.0336 28.8506 545.493
100.485 33.9906 541.836
-19.1091 -51.4222 547.188
-83.0325 -61.7311 548.88
131.433 31.743 541.241
-77.1177 -13.1737 547.137
115.945 -12.5061 543.027
-90.9381 -57.826 548.901
-17.2144 -21.728 546.148
137.399 -7.94784 542.418
76.8078 -19.8593 544.093
131.031 -3.2335 542.395
-43.9888 34.2364 544.847
100.325 40.5535 541.585
-15.5248 -51.5959 547.076
96.8057 14.2069 542.523
108.114 58.0538 540.833
70.1972 -57.3988 545.449
135.114 33.554 541.068
87.8315 -55.3544 545.002
-55.2136 -5.88945 546.392
127.47 31.7442 541.261
50.9356 -35.8621 545.108
-49.2554 39.7904 544.722
-75.9999 39.6884 545.283
-83.0284 -59.811 548.715
91.5301 -57.345 544.937
-47.0363 38.4538 544.701
-19.032 -21.4397 546.089
136.654 -5.95851 542.283
138.724 -11.4507 542.417
-89.1362 -59.7648 548.819
84.8999 -51.7465 544.867
-8.79078 -53.3992 546.894
-63.1086 -3.37181 546.385
48.6393 -31.8577 544.96
80.9695 -51.3511 544.911
-13.1477 -51.6624 546.913
80.7513 -19.7075 543.869
-12.0612 -21.1458 545.876
99.6855 48.7415 541.194
99.5334 50.2948 541.137
-39.2745 89.522 542.77
110.333 42.1086 541.161
-6.92932 -55.8311 546.874
-43.043 78.5407 543.195
84.4964 -19.6397 543.74
-43.2652 86.7051 542.927
-21.2128 -21.1515 546.024
-38.135 88.9477 542.735
83.0078 -51.8549 544.807
128.279 31.7338 541.084
-107.756 45.7119 545.616
-11.2485 -51.7628 546.794
117.199 -9.94079 542.686
-109.176 47.1366 545.574
40.9737 -7.68945 544.205
98.165 16.7528 542.185
108.135 48.1523 540.935
74.9816 -51.6387 544.935
-72.1677 -6.00517 546.53
23.0329 -3.98707 544.443
75.1173 -19.6436 543.854
-15.132 -21.5723 545.823
-50.5243 39.066 544.566
51.8699 -37.3719 544.926
108.075 56.3346 540.638
-5.21064 -57.5411 546.799
-41.0956 78.3852 543.056
22.18 -5.98329 544.499
78.8045 -51.759 544.814
73.4077 -19.074 543.845
-71.4117 34.5397 545.129
-3.11049 -57.7252 546.734
-65.3335 -2.0696 546.21
-61.3302 -2.16111 546.126
50.1487 -34.5124 544.825
-22.4644 -19.8309 545.872
-17.1638 -51.7452 546.814
34.9809 -1.99017 544.063
-23.35 -53.3599 546.982
87.3671 -53.8115 544.65
49.5744 -33.9393 544.784
133.057 -2.17157 541.955
138.315 -10.3561 542.112
95.6273 11.6451 542.285
-134.296 -9.17466 547.834
-75.3321 -11.3493 546.655
-36.8939 78.5098 542.87
19.9136 -19.1108 544.893
53.1483 -39.9361 544.869
120.909 31.7327 541.066
95.1319 63.9662 540.545
77.0328 -51.4572 544.741
130.72 -2.22577 541.975
-72.2832 -3.85741 546.323
-69.4177 29.4038 545.16
65.5943 -57.3695 545.17
34.9076 30.0145 542.922
93.6726 5.96826 542.473
44.8675 -22.0593 544.432
26.8788 29.8092 543.087
-24.1125 -54.4067 546.95
126.831 -2.17196 542.025
46.1239 -24.2272 544.457
31.0092 29.8039 542.988
95.6007 62.8319 540.527
39.0773 -2.31481 543.871
136.415 -4.81933 541.894
-38.995 78.7334 542.842
132.807 31.946 540.75
72.5919 -53.5319 544.845
-66.9633 -2.24267 546.094
-59.1458 -2.04883 545.913
-81.0163 55.8777 544.458
32.9981 29.6887 542.909
124.739 -2.05369 542.016
-82.49 -10.3004 546.668
36.8889 30.1295 542.799
83.6072 -21.3389 543.511
94.879 10.2811 542.227
122.861 31.4414 540.93
99.3188 52.098 540.741
96.9375 60.0788 540.524
108.009 59.4116 540.308
24.9311 -2.15315 544.101
26.7911 -2.2039 544.06
128.836 -2.14433 541.896
23.6839 -2.37012 544.117
-117.161 45.4175 545.511
82.4627 -20.7682 543.47
-1.43083 -57.2759 546.452
22.6848 33.5482 542.936
47.8365 -29.3593 544.482
-21.1233 -51.8034 546.672
85.8512 -18.4861 543.305
-40.3886 87.4844 542.471
25.0328 29.7847 542.994
30.7717 -2.2032 543.929
-81.0166 -11.6663 546.596
-63.1525 -2.13975 545.9
122.905 -2.17164 541.957
-84.4056 60.7009 544.256
36.576 -2.36862 543.779
76.4991 -21.3406 543.555
33.0676 -2.17909 543.828
79.6152 -20.7676 543.456
-109.188 46.5356 545.226
118.446 34.1251 540.816
29.0717 -2.15231 543.904
-44.7334 36.304 544.19
-28.61 -8.84738 545.34
-67.6777 28.2507 544.939
54.1289 -42.2043 544.69
-85.5285 63.5379 544.148
-69.2351 -1.99711 545.969
-64.7602 28.1334 544.878
119.425 -4.2532 542.045
28.9335 29.563 542.838
-55.8707 -3.90121 545.733
75.6403 -21.3392 543.518
97.467 58.4805 540.417
-37.8202 88.0247 542.302
39.0149 37.9966 542.328
38.8066 30.1749 542.591
67.0437 -57.454 544.887
-80.7306 -8.29218 546.384
-9.5538 -51.8844 546.319
-61.0945 28.2412 544.753
34.0359 31.8238 542.621
-28.0383 -10.2747 545.326
81.1643 -20.6213 543.35
-57.5798 -2.37692 545.682
117.432 35.9586 540.711
101.345 38.2419 540.976
68.6904 -57.333 544.823
-12.9072 -22.555 545.394
-71.0971 29.3902 544.907
22.1079 35.5244 542.731
108.496 43.8775 540.618
40.4949 34.1379 542.376
-25.5366 -56.9668 546.784
63.8458 -56.1963 544.865
-7.68486 -54.2467 546.298
-63.0123 28.1889 544.743
-115.469 46.6175 545.23
-30.3144 -6.56125 545.182
-71.0368 -2.37797 545.904
46.4674 45.9608 541.815
-65.0836 29.3801 544.721
-59.4743 -0.852955 545.589
108.271 46.2439 540.482
101.074 46.1947 540.629
86.6727 -52.0227 544.178
115.974 39.9073 540.513
121.074 -2.54911 541.806
99.2551 54.0454 540.394
96.5107 61.8636 540.191
-72.7328 31.7782 544.764
-38.0921 89.4155 542.125
-19.244 -49.966 546.324
-105.644 44.2363 545.034
108.739 42.1185 540.561
-24.0965 -55.229 546.586
-33.5604 80.6409 542.29
-57.1476 28.2997 544.511
58.686 -49.6142 544.635
-33.127 84.0269 542.157
-74.9776 -10.2905 546.158
47.8091 -28.7726 544.171
-69.7757 -0.85317 545.727
13.0718 -35.387 545.112
-28.8728 -57.3416 546.716
-77.8844 41.3412 544.489
-59.0721 28.2289 544.516
101.559 28.4298 541.11
-66.7853 29.3758 544.64
70.8141 -55.9193 544.546
-15.213 -50.0392 546.162
99.052 55.9507 540.212
-27.1891 -57.2933 546.62
101.432 30.151 541.008
26.0744 33.5201 542.486
101.062 40.1836 540.677
-69.1845 28.1804 544.675
101.225 36.1822 540.803
-15.0909 -22.1659 545.19
42.6522 -17.3644 543.809
-113.056 46.2306 544.999
107.957 54.576 540.044
134.861 32.1073 540.218
58.1005 -48.1758 544.493
115.46 -12.2011 542.086
117.413 -8.79201 541.927
-110.9 46.7235 544.921
100.952 48.1032 540.39
-44.7392 80.1221 542.413
77.2975 -20.7565 543.166
101.156 42.2329 540.576
94.1282 8.79837 541.826
-134.09 -1.42794 546.992
22.8592 31.7263 542.572
-11.3779 -50.0812 545.998
-81.8447 -10.5769 546.182
-11.1094 -22.0223 545.061
-66.3204 -0.281594 545.509
30.1062 -0.849664 543.484
74.4568 -20.3308 543.189
94.9287 65.3063 539.925
-75.3093 38.2006 544.419
100.971 44.1506 540.492
112.759 40.5332 540.363
99.7109 19.5607 541.331
78.7714 -49.8984 544.061
73.2177 -51.9804 544.245
-79.1926 -11.7915 546.134
-76.938 -11.9096 546.089
-13.2069 -50.023 545.986
-76.7267 39.6216 544.365
40.8085 35.4772 542.01
86.979 -17.9715 542.8
-49.5983 39.0107 543.795
-24.8895 -56.1272 546.415
23.2254 38.3337 542.274
48.3642 -30.1882 544.005
-117.172 68.6775 544.237
35.1438 33.2171 542.175
101.301 34.0917 540.742
88.2334 -54.9638 543.961
40.2472 32.077 542.095
-60.0164 -1.42358 545.323
119.012 32.0917 540.426
-134.041 1.43548 546.793
23.2354 30.1137 542.514
117.939 -7.08711 541.739
76.964 -50.1851 544.025
-60.8734 -1.42359 545.327
-22.9975 -51.9457 546.165
101.374 32.0683 540.754
131.05 30.2669 540.181
71.7489 -54.1355 544.222
100.909 50.0624 540.158
-56.5818 -3.13624 545.243
-39.165 79.6396 542.134
-117.025 46.2985 544.88
20.4548 -18.5136 544.111
110.743 40.6147 540.237
37.105 -1.79735 543.188
101.753 26.2 540.889
74.7286 -50.1651 543.984
-19.5771 -22.3128 545.057
131.228 -1.60173 541.173
72.1461 -16.7675 542.922
57.2252 32.615 541.605
38.7312 -1.53163 543.122
3.92128 33.2494 542.703
85.2505 -20.0581 542.741
84.7831 -50.3875 543.752
-21.1754 -22.2557 545.058
89.6737 -11.0703 542.337
80.9481 -50.2505 543.809
-43.2009 80.0471 542.119
82.8647 -49.8681 543.731
132.714 -1.41249 541.073
82.8592 -21.9504 542.806
-134.066 -7.15458 546.897
129.001 -1.55442 541.144
19.3141 -20.2216 544.077
-63.2861 -1.70877 545.205
77.0898 -21.9972 542.905
126.883 -1.41274 541.171
-11.6279 -48.7076 545.663
-37.1191 79.9999 541.945
87.6169 -16.5648 542.497
102.831 42.0784 540.229
-20.779 -50.1575 545.894
-5.20088 -56.4802 545.771
125.468 -1.41277 541.182
40.8913 -5.68333 543.111
-17.2036 -50.0063 545.804
80.9385 -21.8787 542.79
36.6502 28.2912 542.068
116.442 37.8946 540.059
69.0371 -56.5536 544.184
27.3908 -1.56041 543.245
33.4306 31.5048 542.02
18.7439 -21.3605 544.063
108.725 40.3494 540.116
2.21566 35.5108 542.523
102.749 30.0707 540.572
107.893 52.2834 539.728
107.911 49.4657 539.819
-73.2744 35.0459 544.125
-63.3004 29.3465 544.098
132.806 30.5342 539.909
-1.77117 -56.2744 545.622
25.2573 -1.41813 543.236
-107.053 46.2164 544.46
-83.7206 60.0484 543.508
-115.247 48.1897 544.565
-23.1081 -20.3653 544.878
-67.2047 26.4022 544.257
-44.4483 35.005 543.49
4.48827 32.1034 542.544
-35.8013 79.7201 541.822
-41.2396 79.9374 541.923
-118.122 45.9181 544.674
31.3627 -1.55997 543.07
40.2265 30.642 541.816
134.197 30.8116 539.819
120.916 30.3888 540.114
98.4636 57.9291 539.673
87.9681 -15.6133 542.325
55.1936 -43.5698 543.941
122.619 -1.41258 541.11
102.85 46.086 539.958
-12.6249 -48.8391 545.536
102.812 34.1236 540.35
-64.5538 -1.4229 545.062
100.777 51.8553 539.799
-62.9831 26.6877 544.094
122.73 30.3298 540.044
28.6623 -1.41773 543.082
106.788 46.148 539.856
30.9559 28.1529 542.054
-17.1717 -23.9561 544.795
-19.1036 -48.8499 545.657
102.907 36.2111 540.256
101.021 22.1826 540.76
135.684 -3.29988 540.867
107.872 51.8965 539.624
-72.9915 31.0582 544.139
-59.0136 27.0614 543.975
-74.9653 36.7463 543.992
107.569 55.0878 539.518
32.6991 28.179 541.991
35.1279 28.3382 541.933
65.0097 -56.3456 544.1
73.3916 -50.3851 543.725
106.795 44.1014 539.89
101.626 24.0658 540.662
-76.3811 39.0205 543.931
106.807 42.1274 539.952
-134.006 -6.57892 546.65
102.888 38.1841 540.158
78.9281 -21.8728 542.644
46.0323 -23.0406 543.375
-73.2519 35.6048 543.959
-70.9988 28.2103 544.155
-37.192 89.299 541.419
-107.544 48.2763 544.254
-27.428 -12.2558 544.555
32.7284 -1.60695 542.923
38.5057 36.0145 541.554
-56.9948 -1.87888 544.825
102.914 40.2497 540.045
-17.1949 -48.8385 545.53
-109.2 48.1634 544.268
3.06672 34.0802 542.356
38.2386 28.6547 541.789
-71.1799 -1.65127 545.104
139.296 -11.0422 540.961
26.0479 31.7834 541.933
106.856 40.2248 539.94
-3.48433 -56.831 545.481
79.6163 -49.2226 543.464
99.9581 54.1549 539.606
106.755 47.1934 539.69
26.8771 28.1506 542.009
105.6 51.7021 539.56
102.487 48.0055 539.746
-57.2879 27.0534 543.814
90.8852 -11.204 541.943
-47.2729 37.4545 543.248
102.725 28.1171 540.381
100.503 56.2157 539.499
-107.222 42.1858 544.353
66.8699 -56.6702 543.938
-20.6223 -48.8384 545.529
-76.0185 -10.2764 545.416
102.901 32.2489 540.224
107.013 49.4425 539.565
-113.188 48.1627 544.26
102.506 50.014 539.635
104.807 42.1188 539.84
-37.1844 88.4309 541.309
28.9334 0.00371731 542.832
102.216 51.14 539.591
102.821 44.0945 539.806
-61.2788 26.3441 543.858
28.7403 28.5173 541.871
91.01 -10.4928 541.839
115.228 39.6566 539.669
-65.0925 0.0038085 544.794
134.963 -1.97763 540.627
-27.3301 -56.0525 545.846
-118.932 44.1904 544.47
-28.5577 -9.97095 544.344
99.2558 18.1791 540.706
-22.7972 -21.8811 544.611
-15.1671 -23.9439 544.516
87.1235 -51.3371 543.257
74.8644 -21.9394 542.535
-13.1703 -23.9413 544.462
98.285 16.3313 540.765
-37.48 81.3714 541.483
105.586 50.0005 539.489
119.503 30.5299 539.836
-34.0738 80.7946 541.418
-67.4954 -1.65066 544.849
-111.166 48.1511 544.127
56.8764 -46.3966 543.692
72.2227 -18.0304 542.428
-11.1732 -23.9382 544.387
99.3594 55.0781 539.423
86.7658 -12.1966 541.911
-59.0613 0.060629 544.59
-10.3334 -49.6651 545.196
23.0629 -1.79627 542.907
23.7757 28.6596 541.882
89.2992 -10.4918 541.789
-65.0465 26.6975 543.814
45.2481 -21.5112 543.07
120.642 -1.76597 540.821
-55.0905 -3.98797 544.608
104.894 46.0524 539.565
88.969 -54.8906 543.236
108.645 38.7184 539.721
-37.4763 80.5129 541.43
43.7304 -20.7523 543.054
-69.0285 0.0814526 544.749
-63.0764 0.00378332 544.625
24.9508 0.00370837 542.757
-43.1522 81.3751 541.508
129.331 29.6671 539.565
39.6124 38.2562 541.177
40.7347 -3.80241 542.542
86.5821 -19.651 542.094
84.8252 -21.8551 542.204
117.482 34.7571 539.641
-78.5726 -11.1309 545.305
44.1225 43.8999 540.889
24.9882 28.2507 541.81
104.855 43.7957 539.605
73.0853 -20.0958 542.39
124.834 29.1075 539.665
-40.2944 88.1303 541.205
30.8592 26.9491 541.717
-71.2472 27.0563 543.871
137.689 -7.26089 540.583
-72.3888 27.0573 543.892
34.8813 0.00349446 542.515
138.857 -9.7618 540.635
137.487 -5.82616 540.533
97.6217 60.4176 539.185
-69.0199 26.4846 543.826
101.043 52.6244 539.362
93.9873 7.08561 541.015
106.624 50.436 539.313
-85.345 62.2646 542.98
-40.8786 80.5138 541.436
106.712 45.4794 539.47
-6.33686 -55.087 545.18
102.58 26.1817 540.188
-44.9768 35.542 542.999
126.895 0.0842876 540.534
131.003 29.6618 539.47
-55.7422 -2.37172 544.477
85.0536 -49.565 543.056
104.71 38.1034 539.742
-80.5367 53.4679 543.148
106.755 38.1508 539.686
129.598 29.0987 539.502
106.599 54.1272 539.158
101.013 56.1147 539.206
80.7978 -49.3809 543.118
-116.135 68.5695 543.382
39.6275 29.2002 541.384
-135.815 -5.81135 546.251
104.424 32.2302 539.909
-39.0289 80.6415 541.341
-19.1533 -23.9376 544.375
30.9614 0.0604816 542.516
15.3205 -31.6051 543.883
-133.544 -10.1983 546.322
49.4312 -33.2724 543.21
-44.833 85.6837 541.263
123.4 29.1025 539.574
-21.1492 -23.9381 544.385
105.116 46.0383 539.399
-35.0818 80.539 541.224
-134.413 0.289891 545.978
104.55 36.3171 539.731
106.19 36.4555 539.688
128.795 -0.148838 540.415
-86.4461 66.7852 542.754
-133.844 -0.853581 545.99
76.5821 -49.335 543.134
133.113 29.7667 539.322
-88.1644 65.0899 542.835
-44.3866 82.0313 541.348
106.645 52.2255 539.132
94.8923 9.53671 540.792
55.1375 -43.5256 543.387
104.766 34.2512 539.765
103.469 50.355 539.253
106.669 48.2844 539.252
40.1659 37.6772 541
100.919 54.2267 539.166
94.2377 8.21573 540.827
40.4895 -2.09712 542.304
104.94 54.1956 539.073
104.465 40.4 539.535
22.2499 -3.54807 542.722
102.97 54.1989 539.105
-109.097 49.2571 543.756
103.43 48.1471 539.294
106.611 56.1598 538.961
102.957 56.1676 539.037
99.242 58.285 539.042
-116.997 48.0784 543.952
102.98 52.2277 539.155
103.875 44.0617 539.404
99.5791 56.4547 539.084
104.907 50.2786 539.168
-28.619 -56.263 545.512
-8.75924 -51.4956 544.932
9.6313 -42.1688 544.231
-34.0501 82.1547 541.042
104.853 44.2692 539.351
-33.5875 86.2106 540.893
104.916 56.1583 538.948
-56.3807 27.597 543.304
121.962 29.6613 539.46
-70.8484 -0.018232 544.514
132.828 -0.0735479 540.207
-52.9381 -10.1164 544.468
82.9354 -48.0294 542.839
57.4088 -46.9358 543.343
104.176 30.3581 539.796
122.903 0.0438888 540.401
-39.1408 87.802 540.928
108.951 39.5404 539.369
96.3095 12.3152 540.536
78.85 -48.091 542.892
97.8391 15.5654 540.386
-21.5182 -49.8251 545.072
38.8314 0.00368168 542.139
118.704 -3.78872 540.571
80.8814 -23.7777 542.026
-33.7567 84.113 540.882
75.1398 -49.3217 542.988
104.855 52.2832 538.999
136.645 -4.11292 540.188
138.134 -8.34122 540.296
103.838 46.3047 539.215
-17.1743 -47.7539 544.885
-61.0881 -0.0740188 544.234
104.951 47.9913 539.132
76.861 -23.8375 542.094
120.254 29.658 539.399
32.8756 0.00347613 542.225
-77.3758 -11.1231 544.92
-22.4702 -23.7387 544.168
103.94 29.1118 539.745
97.0478 62.3476 538.787
-113.12 49.3623 543.661
-114.778 49.2515 543.694
107.82 37.8455 539.361
18.1458 -21.3272 543.213
130.879 0.00360006 540.122
124.807 -0.0367878 540.249
33.3839 27.7767 541.263
-73.4285 -3.89252 544.566
105.562 38.6931 539.367
102.274 24.5973 539.901
72.3056 -51.7444 543.052
26.9171 0.00351498 542.298
119.206 -2.1184 540.408
-67.0826 0.0226213 544.279
106.116 39.2539 539.312
86.1717 -21.553 541.743
135.672 31.326 538.944
-26.8242 -13.6643 543.869
103.279 42.637 539.244
40.2405 -0.56364 542.006
-82.2214 -9.41065 544.888
37.3422 27.6283 541.132
100.228 20.0798 540.044
-17.1478 -25.7542 544.039
-134.317 2.28934 545.589
-28.5288 -11.1 543.791
-37.1367 82.1878 540.887
106.548 58.1003 538.641
27.1526 27.4967 541.329
105.018 33.6166 539.475
97.1595 14.2422 540.279
116.292 -9.9038 540.673
-15.1728 -47.9099 544.71
-79.9212 -8.26763 544.767
-49.4875 38.3554 542.581
-9.73756 -24.1974 543.803
105.03 39.9268 539.247
103.661 40.004 539.272
104.857 58.1011 538.648
84.8122 -23.0853 541.756
-111.611 49.2357 543.519
111 39.4826 539.129
-13.2264 -47.8263 544.643
137.936 -6.49976 540.073
-60.9214 25.7907 543.208
38.9714 27.9848 541.022
-43.1089 82.2203 540.965
34.3953 27.7129 541.122
29.9803 27.4906 541.21
-71.7435 28.7356 543.318
117.661 -6.22172 540.463
57.0983 33.9573 540.404
114.522 39.4199 539.008
102.881 58.0998 538.636
23.3372 -0.109612 542.238
-77.2215 -10.2222 544.697
8.86745 -43.5728 543.978
0.513168 -53.3052 544.474
-54.9114 31.5524 542.839
-133.725 -16.4361 546.087
36.8302 0.00368339 541.934
-19.1648 -47.6228 544.689
39.2926 36.2395 540.679
-57.2987 0.00374922 543.918
105.406 35.7229 539.293
-74.7574 -8.12192 544.553
70.1729 -55.4405 543.051
-75.6912 37.2525 543.068
-132.913 -17.246 546.079
134.304 -0.467173 539.87
-6.90093 -53.7468 544.617
24.5988 27.4934 541.265
56.3683 26.1404 540.637
-63.2138 1.78404 543.967
82.6226 -23.6084 541.72
-1.00744 -55.6884 544.545
-59.2147 1.92605 543.86
-84.9781 60.7839 542.452
-70.4218 1.71318 544.097
5.04734 29.7774 541.572
100.9 58.0962 538.603
13.602 -33.8586 543.488
-67.7527 25.3188 543.252
-118.452 48.1018 543.57
-134.311 -1.99549 545.562
71.4158 -16.7296 541.695
-63.3026 25.5413 543.143
76.8852 -47.8657 542.595
40.7068 33.6904 540.66
-11.0322 -47.6486 544.442
120.97 0.00362882 540.073
30.5322 31.4424 540.946
57.0806 -45.4785 542.925
86.9057 -49.8109 542.43
47.6642 -27.5501 542.521
-41.1117 82.1139 540.773
-15.147 -25.9053 543.791
-39.126 82.1065 540.724
-65.1518 1.67199 543.928
-11.3294 -25.4448 543.684
78.9319 -23.1111 541.696
72.985 -21.412 541.763
28.9525 27.71 541.066
45.9457 -22.1455 542.353
75.1706 -23.4264 541.773
29.1671 1.70625 541.898
-4.61862 -56.1611 544.524
56.3962 27.8765 540.454
-23.8736 -51.4801 544.767
126.849 1.41718 539.821
95.3368 64.558 538.4
136.156 -2.25683 539.742
-18.975 -25.8423 543.798
-37.1927 86.227 540.478
-21.208 -47.8193 544.568
-15.089 -27.1563 543.754
135.119 30.1314 538.682
24.9134 1.56457 541.946
76.528 -25.5242 541.745
-44.8269 34.268 542.336
-117.562 48.3718 543.405
-22.9843 -49.9578 544.653
-26.9896 -55.1734 544.906
124.949 27.9399 538.941
-43.0827 84.0749 540.638
116.873 -8.19969 540.304
63.3426 -55.4349 542.996
34.641 1.61119 541.716
81.049 -25.5187 541.629
68.6164 -55.651 542.884
128.874 27.9346 538.836
93.3079 4.53081 540.361
30.6754 25.8267 540.977
112.896 39.3289 538.791
80.8736 -47.9865 542.354
114.826 -11.7106 540.435
5.04535 30.616 541.359
40.4211 30.008 540.63
136.077 32.0923 538.537
-3.23287 -55.7401 544.385
-35.1479 82.0722 540.499
-41.0591 85.9395 540.495
-65.1625 25.5914 542.998
106.84 60.0275 538.218
23.777 1.42267 541.912
-13.002 -45.956 544.252
-7.92314 -52.0393 544.346
-21.2876 -25.8225 543.761
-59.1762 25.8689 542.853
98.9638 60.2052 538.371
-0.0569647 -55.5677 544.291
-44.6528 84.4467 540.603
-121.89 40.71 543.674
106.954 36.1071 538.982
30.2937 1.42224 541.747
-17.1565 -45.8798 544.314
-42.9919 85.5917 540.51
-13.1483 -25.8943 543.557
-82.1503 -7.88229 544.417
-80.9351 -9.97387 544.46
-73.9516 34.9619 542.821
-73.9475 35.8126 542.791
38.7877 1.42167 541.531
-13.7181 -27.0339 543.583
36.8806 26.1609 540.754
107.566 61.4219 538.091
-9.24706 -49.9346 544.243
131.027 1.41651 539.567
26.8504 26.0617 540.952
57.0553 35.6281 539.997
122.799 28.0893 538.851
22.0291 33.6989 540.796
84.7427 -48.0218 542.171
-69.5212 25.6861 542.995
119.791 -0.561415 539.857
-37.0622 84.2564 540.35
71.9507 -18.9901 541.452
-67.3549 1.65509 543.715
132.886 28.2848 538.597
130.963 28.126 538.641
-79.2268 -10.0985 544.351
-57.1039 25.9487 542.689
46.8625 45.7924 539.83
-68.9517 1.71208 543.735
96.5389 63.5181 538.188
-31.1504 -55.3357 544.817
-81.2443 56.4948 542.175
-71.1292 25.8745 542.971
66.8456 -55.7347 542.75
118.806 30.0018 538.81
-17.133 -27.0333 543.571
90.8802 -12.1239 540.788
74.9036 -47.9822 542.305
-22.2579 -25.6125 543.618
-11.5329 -46.0214 544.062
-60.3868 1.71147 543.517
35.1289 25.6854 540.7
56.5012 29.979 540.106
40.1299 28.0217 540.516
92.23 -10.4703 540.676
32.4912 31.4193 540.55
-39.0354 86.165 540.252
44.7093 -20.2156 541.997
93.8269 5.94239 540.092
72.8045 -49.8542 542.378
-134.317 -14.5646 545.59
-55.324 28.2053 542.503
22.9754 28.101 540.842
52.3865 -37.7669 542.394
-39.1465 84.2275 540.297
109.065 37.8926 538.692
51.2454 -35.6803 542.347
-72.9545 -2.27421 543.865
126.853 27.9242 538.639
-25.2635 -55.257 544.605
124.809 1.41648 539.554
121.149 1.41663 539.612
89.4207 -14.437 540.807
-32.5709 -55.0413 544.728
101.087 60.0134 538.095
-73.7278 -5.78697 543.967
133.517 0.85117 539.358
78.7304 -46.0878 542.066
-107.619 73.793 542.045
89.6374 -54.7776 542.118
-41.0933 84.2459 540.283
-73.7505 30.789 542.737
-113.193 50.3891 542.918
120.888 28.1908 538.699
-12.0179 -44.7071 543.916
122.827 1.41643 539.536
-17.1282 -26.4566 543.418
58.5066 18.1095 540.342
88.2004 -51.3612 542.01
-35.124 84.2792 540.133
48.9125 -31.7909 542.189
-35.1196 86.2482 540.064
-67.1987 24.09 542.798
105.006 59.9991 537.966
38.8817 26.3215 540.476
82.7457 -46.0405 541.935
87.9113 -50.7905 541.976
-60.3734 0.857544 543.397
-111.105 50.1481 542.838
-73.6438 31.8254 542.649
-55.1392 30.9524 542.285
40.6732 32.2484 540.213
70.7814 -53.8345 542.42
64.9993 -55.3933 542.588
117.24 33.8397 538.529
-27.2442 -14.1586 543.161
77.0204 -46.1968 542.014
-13.1408 -25.8792 543.244
-115.048 68.4306 542.281
-19.593 -26.0757 543.385
-107.664 72.48 541.988
80.9918 -25.865 541.246
-65.2184 24.1558 542.677
-25.069 -53.9403 544.409
137.753 -5.36154 539.355
98.2848 61.7688 537.958
-23.6676 -22.1844 543.31
-84.0362 59.8678 541.874
-76.6684 37.9197 542.439
83.9175 -46.8059 541.839
-78.4316 41.1792 542.355
86.5616 -48.317 541.816
-87.9922 64.3954 541.775
-109.116 50.0904 542.694
-20.5395 -26.1683 543.338
32.7714 25.1911 540.511
103.641 27.7981 538.925
-51.846 -10.5245 543.48
-61.1292 24.1491 542.529
-115.182 50.1334 542.813
24.8538 26.0468 540.645
59.017 -49.9818 542.435
49.897 -33.7715 542.09
-31.3016 5.68517 542.503
22.2091 29.7222 540.576
128.697 0.851042 539.277
-29.2055 -55.514 544.466
102.826 59.862 537.858
7.90863 -45.2286 543.34
84.922 -24.1439 541.009
-17.141 -44.1302 543.825
-12.7256 -44.2653 543.736
74.5112 -24.0827 541.223
18.6823 -20.1547 542.273
-15.3622 -46.0539 543.846
87.7088 -17.8319 540.727
28.8099 26.0407 540.519
61.0408 13.864 540.238
-21.0185 -46.1916 543.957
-56.8351 29.5287 542.21
47.9557 47.1689 539.41
78.7681 -24.2037 541.112
73.5004 -48.0695 542.009
-85.7106 63.2517 541.697
104.972 30.1867 538.755
-41.7678 27.8114 541.938
52.1647 -36.0402 542.06
-11.0241 -26.1959 543.069
-72.7104 28.1279 542.575
77.017 -26.065 541.195
-72.3361 -0.280555 543.496
103.326 26.1317 538.899
139.431 -9.314 539.293
105.42 32.0138 538.643
-19.1036 -45.9677 543.855
-81.5024 -7.40025 543.898
56.4578 31.3694 539.69
53.8754 -41.1548 542.139
73.1511 -22.1509 541.103
-134.924 -6.17784 544.962
80.8741 -46.4178 541.723
-5.75156 -54.3799 543.818
83.2899 -24.1502 540.923
15.2835 -30.9607 542.571
-54.6561 -3.12407 543.127
-106.482 48.3867 542.519
-9.73502 -48.3866 543.661
115.091 38.23 538.146
116.415 35.9784 538.187
28.6505 31.8226 540.181
117.469 32.1333 538.286
130.994 2.59979 538.967
115.52 -10.1689 539.714
86.7346 -21.8759 540.707
135.052 0.285859 538.948
-28.7042 -11.8759 542.806
-67.088 2.72573 543.134
-15.1519 -28.1962 543.048
-19.1091 -27.8635 543.113
71.1746 -52.4969 542.016
4.75531 32.2721 540.615
-52.3891 -9.6661 543.21
-62.9302 24.2207 542.312
110.752 38.2554 538.173
-24.5539 -52.6929 544.039
106.78 34.1128 538.39
-15.9949 -44.6794 543.579
28.6976 2.55335 541.069
-134.199 -15.4079 545.108
-56.3407 0.856791 542.92
22.0059 31.9662 540.226
54.7122 -42.5624 541.995
45.8713 -21.2589 541.475
-61.2431 2.43107 542.957
101.373 22.011 538.868
134.578 28.3496 537.955
40.7266 -1.41209 540.923
-22.3791 -48.0002 543.798
-117.171 50.0201 542.562
32.7992 2.26963 540.966
-134.431 1.99943 544.51
-59.103 24.1336 542.183
-62.8842 2.84676 542.966
90.3928 -13.7861 540.272
-59.3217 2.98851 542.885
108.657 36.3568 538.224
24.8745 2.62436 541.099
-57.3073 2.35861 542.841
55.8826 27.9735 539.594
106.588 61.0643 537.423
85.5578 -47.3391 541.448
126.916 2.54321 538.908
30.8959 2.39096 540.941
12.4438 -36.6454 542.617
-57.4607 24.1295 542.086
56.4092 -44.2608 541.936
124.969 2.32621 538.932
-23.1774 -24.064 542.936
-75.1946 35.9767 542.051
-13.7146 -45.5218 543.443
10.1739 -40.6345 542.772
124.762 26.3202 538.134
106.259 32.5301 538.319
-21.4014 -44.108 543.553
-118.797 48.4658 542.551
53.4664 -39.9965 541.83
-107.325 50.0501 542.255
2.77292 35.3725 540.41
87.3101 -20.0162 540.452
-79.4417 54.7229 541.498
-18.2687 -44.6718 543.488
74.8036 -46.6419 541.581
68.8985 -54.7629 541.972
102.6 24.2579 538.645
30.6767 24.2323 540.163
74.7065 -25.7665 540.877
112.888 38.3092 537.941
-4.04064 -54.3459 543.478
105.924 30.7269 538.336
15.8419 -29.806 542.237
122.899 26.1503 538.119
26.8139 24.0462 540.218
-13.0781 -27.9239 542.78
-63.2038 4.15296 542.78
-72.6668 26.2658 542.248
55.8816 24.5828 539.583
119.053 28.3904 538.12
-74.408 34.6257 542.006
-65.2399 2.75138 542.856
34.8804 2.66513 540.735
58.7263 16.678 539.764
-69.043 24.1352 542.217
82.9653 -25.9174 540.655
38.9561 2.34532 540.65
-31.7687 -54.2099 544.015
128.833 26.1986 537.955
-134.041 -2.56163 544.466
40.0537 36.4421 539.489
83.6879 -45.4818 541.273
40.0774 26.5715 539.809
-74.0032 -3.12449 543.2
-17.1094 -28.0187 542.818
26.8915 32.5114 539.883
89.1238 -15.5508 540.152
132.831 2.20325 538.635
-9.337 -25.6575 542.561
-71.7031 0.572608 543.012
-69.0058 2.80574 542.88
118.485 -1.68968 539.061
-55.5456 26.2734 541.818
-15.1194 -29.8377 542.815
-19.1014 -29.8422 542.895
128.842 2.25994 538.701
86.419 -23.6525 540.453
117.934 -3.66558 539.121
136.181 30.4039 537.608
-69.1851 4.17955 542.816
33.0789 24.1491 539.988
28.7865 24.0399 540.079
66.9929 -54.3734 541.86
-8.59051 -49.2067 543.288
-134.432 0.146107 544.319
-21.0891 -27.8493 542.842
76.6606 -45.2516 541.346
130.774 26.3052 537.83
132.939 26.3779 537.781
-14.7059 -45.3655 543.275
-61.0717 22.2615 542.019
119.104 0.0443742 538.94
-1.47916 -54.8971 543.301
103.04 60.905 537.259
70.5488 -15.9848 540.485
126.958 26.4067 537.889
79.5772 -45.3392 541.263
-65.0533 22.1426 542.089
78.8962 -25.8417 540.629
-54.7998 -2.1743 542.67
122.889 2.36879 538.76
-118.162 51.391 542.239
-74.0005 -5.39957 543.181
120.824 2.49551 538.792
23.1828 25.9939 540.081
43.9712 44.3138 539.035
104.336 28.2445 538.288
-10.6362 -45.555 543.159
80.8991 -27.7357 540.626
-19.2116 -45.4174 543.328
80.8711 -45.277 541.197
87.7836 -49.5834 541.188
-21.2514 -45.3722 543.355
104.682 60.9234 537.173
-11.1353 -27.8347 542.555
-80.861 -9.3852 543.415
-59.0724 22.2124 541.902
-27.0395 -15.8066 542.478
76.9424 -27.7381 540.67
-80.5484 53.5707 541.314
-59.1364 4.26444 542.488
-133.872 -10.3554 544.553
26.8394 2.26868 540.731
36.96 2.32429 540.512
47.5532 -27.485 541.258
-73.9739 -1.98614 542.985
136.788 -1.96966 538.525
-67.0334 22.1406 542.035
17.5273 -21.2669 541.678
120.987 26.3219 537.916
-78.0002 -9.38332 543.306
34.9901 24.028 539.81
40.5043 0.192573 540.48
-112.951 52.1426 542.006
-134.374 -7.57813 544.431
-26.9582 -54.2257 543.7
84.9129 -26.0915 540.397
56.9405 36.6849 538.91
98.1072 14.9542 538.75
-17.1183 -42.9338 543.099
137.332 -3.80242 538.537
63.4843 -54.7434 541.78
99.491 18.0523 538.607
-57.7842 22.2725 541.794
-111.286 52.1361 541.938
-106.586 73.6677 541.124
26.5022 33.6262 539.629
100.741 60.921 537.152
-71.2088 24.0741 542.005
-13.1243 -29.8236 542.553
-78.562 -9.38248 543.257
-134.54 -1.70538 544.179
58.3637 -48.4906 541.643
-72.4193 24.6925 541.99
72.5051 -49.0319 541.358
-45.7652 33.9077 541.117
-13.3478 -43.5649 542.991
-71.2994 2.45763 542.696
-121.473 42.0377 542.447
-17.1156 -41.7895 543.01
23.1063 2.34586 540.696
-117.028 52.04 542.011
101.978 22.835 538.339
-133.971 -3.13016 544.185
-134.492 3.13703 543.985
-107.356 51.916 541.794
-43.6941 29.1901 541.197
133.907 26.7403 537.519
73.0656 -23.6531 540.47
-134.434 -4.15631 544.211
76.9965 -43.9052 541.051
-9.0914 -47.7274 542.997
-29.0118 -10.2157 542.176
82.9251 -43.8945 540.919
-115.014 52.0914 541.933
74.9692 -45.4989 541.139
71.8138 -21.7834 540.421
-9.59791 -27.994 542.343
40.1131 2.26664 540.289
-69.0075 22.1365 541.939
92.051 -11.2975 539.627
-134.392 -9.59126 544.352
91.4715 -8.75332 539.542
84.9058 -45.876 540.907
136.217 -0.207566 538.308
3.33611 34.4954 539.971
-109.189 51.9657 541.773
86.2505 -25.896 540.207
36.389 24.3011 539.599
-133.932 -0.850506 544.023
119.323 26.7518 537.75
98.6324 16.0761 538.539
24.8465 4.24871 540.49
-118.395 49.95 542.009
-76.6156 36.5822 541.563
129.982 24.7731 537.581
-52.1884 34.0029 541.129
-11.0845 -43.7083 542.827
-80.8162 -8.24273 543.114
138.821 -8.11556 538.462
68.7598 -14.042 540.14
-32.3802 8.22665 541.54
24.8152 24.0279 539.806
-63.0946 22.3404 541.721
11.6758 -37.7474 542.124
-119.088 71.1394 541.288
-57.1938 4.26206 542.186
-19.0898 -31.8128 542.572
-72.1213 22.9852 541.882
87.0363 -47.7275 540.852
-21.0386 -43.7226 543.003
-73.2178 0.240843 542.652
117.845 -3.09871 538.717
30.7793 4.24733 540.313
64.0256 -54.7211 541.559
134.794 2.17735 538.175
33.2837 22.89 539.638
117.601 30.4035 537.601
88.1247 -17.5191 539.806
48.4782 -29.7402 541.039
56.4013 22.3048 539.15
71.6453 -19.7955 540.216
-57.9101 19.5721 541.646
-67.0708 4.26321 542.336
-63.0775 6.24909 542.183
-122.369 41.6266 542.267
-122.719 40.6077 542.307
-65.0123 20.4268 541.749
3.9007 33.6402 539.854
124.914 25.0543 537.577
106.663 62.1802 536.734
-71.0486 22.0605 541.815
82.6641 -27.7798 540.211
-19.158 -43.7132 542.891
37.2292 22.8838 539.491
-61.0901 4.26196 542.182
36.9887 4.24551 540.106
26.8189 4.24743 540.318
-17.1059 -39.7768 542.702
97.3109 13.8195 538.507
-13.1193 -31.7999 542.352
-13.127 -41.764 542.678
122.946 25.0548 537.587
21.9678 38.1229 539.291
0.085462 -53.7087 542.787
34.9706 22.8846 539.51
74.9146 -27.7209 540.335
28.7957 4.24685 540.251
55.4883 -43.355 541.258
96.6606 12.1289 538.549
-64.9922 4.21074 542.23
-52.6502 -8.34532 542.382
49.7997 -33.1391 541.033
95.5072 64.9308 536.82
26.956 22.7781 539.664
-15.0611 -43.7015 542.743
23.453 24.1352 539.68
-65.0123 18.1576 541.749
-134.009 -16.2412 544.337
-79.629 54.3737 540.846
133.061 25.8286 537.289
-136.212 -5.69305 544.028
72.5986 -47.7248 540.998
28.761 22.6059 539.6
-60.1671 20.7024 541.539
33.0298 4.24573 540.11
-23.9423 -49.4731 543.089
-22.8655 -26.023 542.286
-69.4054 20.5676 541.722
89.4228 -53.797 540.82
-25.6552 -53.1836 543.232
-6.30951 -53.4284 542.827
-133.727 -17.9509 544.349
-106.664 72.0663 540.8
71.0513 -17.667 540.002
7.1363 -46.2777 542.295
100.668 20.2897 538.116
86.6426 -45.9151 540.599
58.925 46.1182 538.14
-15.1047 -31.7958 542.282
111.069 37.4207 537.317
126.832 4.22966 538.071
80.8994 -43.8708 540.628
78.8646 -27.7671 540.134
-17.091 -29.8056 542.23
130.921 4.22889 537.973
40.2877 35.8343 538.844
125.43 25.6077 537.376
21.972 30.7873 539.394
78.9218 -43.8731 540.656
-59.02 21.2648 541.421
124.921 4.17336 538.09
22.2014 0.192791 540.388
114.844 -9.68097 538.752
43.2418 -17.2589 540.506
-69.0284 6.24812 542.102
50.5434 -34.2645 540.907
90.7244 -53.8798 540.702
-61.0051 21.265 541.427
48.0754 -28.3091 540.757
-56.3074 24.0913 541.232
-13.1164 -33.7802 542.229
40.584 28.2268 539.03
73.1895 -26.0138 540.133
138.136 -6.05341 538.097
131.295 25.5991 537.195
95.4261 9.68377 538.48
-21.0661 -29.8064 542.249
100.889 62.047 536.632
-13.1206 -39.7554 542.409
-5.72771 -18.9939 541.562
-21.0812 -41.7608 542.635
94.6832 8.18083 538.53
116.311 -7.60977 538.579
80.815 -29.9691 540.064
23.6975 5.37692 540.1
76.923 -41.8823 540.534
119.232 2.07014 538.186
-57.255 6.01269 541.79
-51.4395 -9.93176 542.193
34.9956 4.2439 539.894
45.1251 -19.5213 540.465
-19.0801 -33.7842 542.293
28.45 33.5907 539.06
-41.3936 26.9014 540.758
69.0956 -15.3526 539.817
-134.498 -11.9589 544.008
22.0116 -1.97709 540.366
-78.8072 -8.23663 542.706
33.2616 23.4395 539.279
-115.152 53.0157 541.435
42.9465 -15.2735 540.346
24.2356 22.6013 539.49
-7.78376 -49.8226 542.559
56.3315 32.4266 538.483
-71.2995 4.26155 542.109
-64.9507 6.12446 541.912
128.927 4.00294 537.88
-75.9931 35.7055 541.168
96.4357 -52.9111 540.448
126.517 25.5999 537.214
-75.3783 -7.42294 542.573
23.4144 4.24557 540.09
-22.5509 -27.5995 542.114
-68.4881 18.2461 541.57
-54.8573 29.5994 540.904
-70.5628 20.5132 541.534
30.8311 5.88845 539.87
129.041 24.3328 537.179
-88.3426 64.5209 540.448
-58.9865 5.88981 541.764
-111.157 53.0034 541.31
