ply
format ascii 1.0
comment Created by Open3D
element vertex 1932
property double x
property double y
property double z
end_header
40.3438 6.25855 532.662
-77.8438 -39.4484 532.891
-61.8671 -20.0234 532.741
-102.083 -32.1456 532.784
-9.98144 13.7779 532.512
-101.476 -28.0011 532.744
44.5609 13.6673 532.59
25.6238 -48.0054 533.109
-43.8598 40.1857 532.205
-10.4757 -51.2585 533.07
-82.3201 -11.9873 532.604
-131.5 -66.1365 533.01
25.8468 -50.0704 533.101
-102.711 -35.9812 532.781
-110.571 -65.0217 533.022
73.3299 -24.551 532.932
70.6259 -19.8055 532.883
-70.0754 -34.0298 532.799
-20.3975 39.8515 532.212
-131.323 -64.2342 532.972
-25.3452 -19.8004 532.733
119.845 23.4662 532.562
-55.4939 48.7561 532.074
25.7583 -41.8561 533.003
-79.7294 -37.8244 532.809
-19.3271 -97.4693 533.429
-101.273 -13.938 532.555
-22.1196 -97.4672 533.417
-101.289 -23.9798 532.643
-42.1429 19.5145 532.343
-30.0325 48.6466 532.095
-66.1038 -27.7204 532.719
110.302 -8.14182 532.804
-27.6813 -48.55 532.957
-108.039 -58.0328 532.919
-5.07596 -13.9409 532.679
86.6815 1.95631 532.674
66.9653 -77.9081 533.356
18.1776 -49.7662 533.029
-64.2017 -23.9811 532.673
-68.4486 -31.9615 532.731
92.0071 -15.8978 532.826
-51.3415 13.6611 532.348
-53.5398 48.4341 532.034
71.7373 -22.0361 532.848
-131.445 -67.9627 532.951
-101.261 -11.9846 532.495
46.2727 42.1522 532.232
128.2 23.4242 532.517
44.1344 12.132 532.488
-101.283 -25.9304 532.61
110.786 -31.9761 532.98
69.6837 -17.8492 532.79
68.4255 -15.7569 532.767
-82.3666 -28.004 532.648
-59.1086 47.0791 532.013
-34.4596 46.108 532.056
-107.729 -46.0223 532.767
63.8914 48.6262 532.177
59.326 15.616 532.465
-105.765 -40.0209 532.712
58.0731 42.1936 532.224
-39.844 19.8762 532.274
-101.102 -19.9041 532.537
58.1276 17.845 532.433
-41.9293 40.0561 532.078
92.0111 -23.9894 532.849
-26.2824 -47.3336 532.874
29.4802 38.735 532.183
39.9237 48.62 532.109
-63.2619 -22.3973 532.586
-107.156 -42.1116 532.692
38.112 48.5725 532.097
-36.4239 16.1673 532.263
-101.217 -17.9582 532.469
111.656 -2.02783 532.642
-103.854 -37.9794 532.636
42.0399 8.08845 532.443
78.3989 -33.9785 532.869
16.3901 10.3178 532.38
-39.8894 40.1163 532.024
20.2891 19.5126 532.295
26.5854 -36.1217 532.798
111.256 -3.78061 532.635
65.184 3.90676 532.492
-12.5179 -53.4729 532.887
-122.049 -81.806 532.974
114.691 -41.7982 532.97
-7.6737 10.5022 532.319
-108.293 -59.9729 532.795
-47.5483 38.0257 532.009
-101.254 -22.0201 532.458
68.1981 48.4781 532.079
31.1967 -54.9669 532.945
-46.1823 38.6098 531.994
66.9644 -94.6622 533.349
115.328 30.1037 532.307
-19.6662 -37.9931 532.712
-114.207 -71.9386 532.873
-34.5008 9.86896 532.262
-46.2918 40.2896 531.972
24.7427 29.5391 532.173
-34.5918 44.8451 531.946
-111.273 -66.1128 532.821
-67.5349 -30.1106 532.565
-118.644 -79.5196 532.927
-12.0119 -52.2462 532.844
111.387 -36.0677 532.883
90.7005 -30.0302 532.798
-102.479 -33.8271 532.543
46.3486 17.8407 532.304
110.372 -30.0326 532.825
110.983 -33.7543 532.855
26.1206 -51.9679 532.889
-107.978 -1.89593 532.241
-36.8352 18.115 532.168
90.3289 -32.0774 532.803
-22.9201 -23.697 532.552
118.857 -65.0352 533.132
13.5495 -11.873 532.489
-82.3544 -25.8121 532.467
116.594 -51.9024 532.996
-108.655 -61.6409 532.746
-47.7732 40.2019 531.927
-59.1512 -14.77 532.396
77.4889 -32.3529 532.753
55.9392 40.2392 532.07
117.554 25.644 532.289
50.0878 40.2861 532.057
-38.184 19.7843 532.104
112.053 -38.0026 532.842
-129.967 -60.0703 532.674
-46.1492 19.9354 532.082
120.118 -3.71377 532.534
-38.0549 40.1383 531.906
74.6889 -27.3283 532.674
48.1997 40.2239 532.031
-19.909 -30.1662 532.555
66.9372 -80.6668 533.132
-82.5664 -23.9691 532.396
-106.214 -1.66773 532.162
-123.973 -81.8797 532.848
-101.223 -15.8818 532.293
66.0481 48.7462 531.966
-47.8771 19.6895 532.052
88.0857 0.0803649 532.426
-107.494 -44.0498 532.523
-71.7788 -36.1018 532.505
53.9831 40.1911 532.011
-6.56346 -47.9696 532.706
-81.6454 -32.0551 532.447
-13.4451 -56.0641 532.763
16.2152 -48.1585 532.736
-21.4727 -41.8815 532.617
117.433 -62.229 533.006
116.701 26.4763 532.214
90.8349 -10.0328 532.498
-116.433 -75.8144 532.77
52.0951 40.3064 531.987
110.11 -27.8863 532.681
59.5497 42.619 531.971
-15.9649 -95.8725 533.093
-5.35263 -23.9719 532.467
51.9284 19.9853 532.159
66.7137 -11.984 532.464
13.3253 -17.8374 532.433
-103.696 -1.66774 532.114
76.9151 -31.5095 532.64
124.018 -10.3122 532.52
-36.8242 19.2238 532.009
13.6613 -27.8206 532.5
80.0794 -35.9735 532.667
13.326 -23.972 532.46
-119.93 -80.122 532.755
89.4188 -1.94703 532.366
-75.9324 -37.9857 532.435
-53.4288 9.41944 532.041
73.9735 -25.7881 532.545
-112.278 -68.099 532.643
-43.9373 38.484 531.794
76.2378 -30.2792 532.586
75.9605 -75.5101 532.987
48.3639 19.8397 532.094
116.797 -60.0968 532.906
109.812 -25.9295 532.59
116.569 -58.0298 532.884
13.3233 -15.8835 532.352
92.0635 -20.0705 532.507
50.1409 19.9862 532.083
25.7101 -39.9829 532.58
118.211 -1.78777 532.377
-110.932 -6.68207 532.075
61.4307 9.84901 532.182
91.946 -17.8386 532.472
23.7453 -58.0118 532.722
-18.455 -34.007 532.442
-24.1743 -45.5836 532.531
-24.5819 -20.899 532.308
-39.0451 21.4481 531.906
115.895 -44.0256 532.718
91.9482 -22.0212 532.485
-43.9656 19.5916 531.911
-42.9307 38.7028 531.741
109.777 -11.983 532.419
26.1533 -37.9162 532.524
78.0738 -75.335 532.934
82.3149 -37.8999 532.602
-32.5537 7.89618 532.019
13.3233 -22.0155 532.352
74.005 -75.2926 532.917
-7.72365 -48.653 532.556
21.1129 20.8939 531.978
116.54 -49.9261 532.751
55.9357 19.941 532.037
29.9526 -54.2116 532.656
46.4465 40.937 531.831
116.251 -46.017 532.706
116.55 -56.0674 532.796
-77.9691 -38.0526 532.338
-22.3592 -43.6268 532.469
126.147 23.1272 532.092
-49.3452 19.2185 531.862
-46.0949 21.6313 531.844
-55.203 7.52402 531.956
75.2177 -28.1544 532.469
122.495 -71.9305 532.928
-118.227 -78.0799 532.623
66.5413 -83.9876 532.945
13.3219 -20.0626 532.295
-103.112 -3.33839 531.971
-5.07185 -17.924 532.248
-130.176 -61.7456 532.447
72.6073 -23.5048 532.409
-33.4572 47.0445 531.621
-23.4735 -44.8802 532.455
-69.1707 -32.6027 532.276
-113.981 -10.0236 532.005
21.9725 -49.9086 532.562
67.6138 -13.9873 532.306
-22.0723 -25.9139 532.276
66.9088 -81.7486 532.906
53.9798 20.0583 531.978
-5.21121 -22.1512 532.263
-82.5246 -20.0561 532.126
-9.59665 -50.0267 532.501
57.3021 40.6555 531.792
44.489 44.827 531.731
-47.9473 21.4438 531.799
79.8949 -75.3631 532.852
23.9411 -95.706 532.944
63.7406 7.80422 532.08
55.3532 38.4281 531.793
121.585 -70.0235 532.856
24.2587 -54.0352 532.563
-20.0746 -40.0076 532.371
109.727 -24.0458 532.42
-82.5167 -17.7325 532.075
20.0186 -49.9036 532.509
-26.803 -16.9918 532.14
26.4522 -97.3787 532.933
-5.071 -15.8779 532.159
-82.5112 -15.8745 532.04
19.4392 15.8783 531.909
53.9572 38.147 531.755
57.5392 19.6663 531.923
-80.6372 -4.17365 531.928
90.2264 -5.84736 532.198
69.0569 -16.4382 532.258
-109.328 -62.7162 532.403
116.521 -54.1012 532.664
66.912 -92.9138 532.931
71.2913 -20.8985 532.295
17.3974 10.6801 531.929
27.63 -32.0481 532.323
24.1999 -51.9726 532.491
115.22 40.0998 531.806
47.8286 38.7011 531.717
109.709 -20.089 532.333
-5.07098 -20.0573 532.157
-103.333 -36.3103 532.153
109.475 -17.8331 532.306
52.8401 38.1445 531.72
-48.4814 39.8021 531.55
-24.0166 -22.0067 532.135
-128.807 -54.0599 532.262
42.6507 9.3807 531.952
-8.96675 10.8643 531.86
86.1406 -37.9653 532.434
56.7333 41.4821 531.679
34.2392 -57.5259 532.528
-105.486 -38.5018 532.147
88.0913 -38.0762 532.429
-82.5095 -22.0024 532.029
86.863 0.839681 532.077
-113.372 -70.1045 532.41
124.589 -75.9327 532.818
109.69 -13.9042 532.241
-52.2283 47.5854 531.445
-80.8538 -34.2659 532.132
46.4478 19.2179 531.844
-80.0754 -36.0495 532.143
90.804 -27.8675 532.317
32.0059 -56.0339 532.479
120.869 -5.29001 532.159
109.679 -21.9432 532.281
-110.107 -63.9804 532.321
50.048 39.2518 531.635
56.1895 21.4439 531.802
40.6042 7.80161 531.899
89.1386 -35.9527 532.358
84.1927 -38.253 532.367
-45.3582 39.6854 531.477
-108.64 -3.0587 531.762
-115.455 -73.8626 532.376
114.163 -1.38899 532.072
109.572 -15.9584 532.195
-37.529 39.9817 531.469
55.8907 39.2498 531.608
72.1759 -75.5747 532.655
-46.8011 41.4627 531.431
53.9415 39.2493 531.601
90.7687 -11.9758 532.11
25.0493 -96.7899 532.764
24.2881 -55.9014 532.397
-13.4341 -54.6247 532.329
-26.0699 47.4419 531.397
-73.8797 -36.4901 532.068
13.8705 -10.3013 531.961
26.6939 -34.2692 532.184
-41.9952 38.0735 531.434
120.508 -67.9471 532.619
-80.7971 -5.28603 531.759
124.128 23.1143 531.796
36.2565 47.7246 531.445
16.6499 7.52144 531.774
49.4977 20.8832 531.704
25.0248 -44.0263 532.244
123.771 -74.0412 532.659
119.476 -66.0826 532.576
45.583 41.4683 531.503
-35.1284 12.2516 531.638
-35.11 43.4047 531.36
114.014 -39.9537 532.325
118.353 -63.8479 532.542
-50.7097 16.4247 531.568
60.6069 45.3617 531.472
24.4211 -48.0671 532.243
58.4056 18.6558 531.698
68.3524 -76.4905 532.56
117.041 -61.0534 532.488
116.457 -47.9393 532.37
55.8964 20.8816 531.663
115.529 -1.38867 531.949
28.1997 -53.9125 532.287
-35.1249 13.9203 531.586
-71.3585 -34.8119 531.965
115.552 -42.1923 532.31
24.5588 -45.9736 532.205
67.4225 -78.1628 532.556
-45.6943 20.3187 531.502
-40.1287 20.8753 531.505
51.7024 39.2398 531.473
111.294 -34.1594 532.208
41.1462 8.63405 531.706
58.655 41.4632 531.437
-39.9229 22.0371 531.457
81.6349 -75.8317 532.504
79.2543 -34.6362 532.118
-81.3361 -8.62517 531.643
-78.5893 -36.478 531.891
-61.3077 -18.6501 531.758
69.8004 -75.7862 532.463
24.1853 -50.0302 532.164
-48.0061 20.4082 531.421
65.0898 5.29351 531.722
47.7992 39.6046 531.388
-48.2161 38.0319 531.258
-50.675 43.3921 531.205
-117.36 -76.342 532.17
-44.1102 20.5007 531.415
69.4951 47.0202 531.347
-130.422 -64.0649 532.029
-121.941 -80.2849 532.185
47.7198 20.4128 531.539
67.8227 47.8525 531.32
-18.437 -35.6446 531.924
126.108 -78.0643 532.516
115.122 50.0813 531.355
45.8637 18.6499 531.529
-39.8297 38.1092 531.226
41.5289 47.7079 531.259
68.0938 -95.8629 532.572
-75.7939 -36.473 531.819
54.1376 38.0617 531.34
-45.8259 37.7884 531.185
89.0367 -3.05863 531.749
-54.1109 47.7753 531.08
52.8162 20.5961 531.48
62.5284 47.5679 531.249
-130.407 -65.7288 531.969
51.889 38.1154 531.312
111.317 -5.56469 531.783
-105.786 -2.22195 531.415
-44.1345 37.6866 531.151
26.0804 -53.9649 532.071
-20.3853 -41.4907 531.89
-11.1972 -50.9685 531.987
16.3626 9.18704 531.487
-128.707 -55.9677 531.85
-37.5526 20.4212 531.279
58.1958 39.9775 531.237
-33.6794 10.1385 531.362
-8.96783 -48.7344 531.924
123.137 -72.7412 532.329
50.0094 38.109 531.224
-24.3383 45.5108 531.047
30.4 -55.6147 532.025
-42.0545 21.9769 531.224
-77.447 -37.0214 531.697
-128.692 -57.0751 531.788
40.0986 47.7775 531.104
88.5094 -36.4804 531.927
18.0471 -48.7345 531.924
58.3691 20.2123 531.367
-29.8032 47.8227 530.989
38.0385 47.7377 531.074
-32.0263 47.5426 530.967
-17.8916 -96.7007 532.273
-18.9853 -31.4528 531.681
-22.5752 43.3752 531.001
50.0162 21.9797 531.297
-119.259 -78.8153 531.939
-45.9111 22.0973 531.149
22.2229 -48.7303 531.878
81.5349 -36.4752 531.85
-57.6491 47.9803 530.884
56.1892 38.1032 531.142
-52.6237 10.573 531.223
-128.671 -55.9522 531.702
18.8606 13.0784 531.303
43.3448 10.854 531.356
-56.035 47.9787 530.867
-104.423 -37.5683 531.557
66.0397 47.9472 531.047
-123.484 -79.9235 531.9
-102.696 -4.72476 531.26
90.7051 -25.8879 531.737
-17.6648 34.0178 531.039
-37.8644 38.0909 530.971
-81.85 -13.9067 531.365
114.121 -38.7046 531.874
48.0749 38.0484 531.083
13.8584 -14.0027 531.496
-39.8182 23.9169 531.074
-81.3144 -31.4421 531.501
65.6096 1.95149 531.422
115.192 52.2752 531.038
-35.6974 41.8531 530.892
91.2429 -20.0372 531.626
-36.1919 40.0316 530.9
115.787 54.218 531
-50.0856 41.9044 530.856
22.7469 25.3091 531.111
-43.9858 21.9692 531.036
44.1076 43.8097 530.967
56.1227 22.0439 531.17
-19.5134 37.7154 530.914
-37.8683 21.9686 531.023
-42.0367 23.9134 530.998
115.22 -40.9272 531.806
19.9895 -48.7169 531.732
-47.8751 22.037 530.999
-32.0925 8.29125 531.144
46.0532 20.1937 531.147
-109.53 -4.16736 531.127
19.9663 17.8013 531.115
117.807 56.2479 530.915
60.466 43.8069 530.936
54.1708 21.9723 531.118
-81.8434 -23.9208 531.322
24.2256 28.085 531.016
46.0355 39.8681 530.943
-42.0357 20.5768 530.983
112.63 -1.94361 531.409
-43.978 23.911 530.939
82.3423 -37.0195 531.669
-5.62005 -20.0281 531.383
48.0496 21.971 531.082
-14.511 27.5248 530.938
25.5578 -55.3991 531.737
64.2714 47.7727 530.875
-12.7046 23.9124 530.961
-128.627 -58.1591 531.518
-51.3695 44.0009 530.72
-104.046 -2.22048 531.053
-76.0129 -37.2792 531.402
-52.2371 46.1284 530.687
-45.9118 33.9096 530.797
-10.0648 11.9596 531.024
115.217 41.9808 530.938
122.097 23.5898 531.111
-129.365 -62.4244 531.502
-74.057 -35.6057 531.342
-49.8889 20.136 530.88
-6.50616 7.95609 531.047
60.7486 13.9999 531.091
-39.9125 36.169 530.742
-5.47973 -17.9378 531.276
-62.9144 -21.4126 531.219
85.111 -37.013 531.575
-50.6434 18.0706 530.874
-81.2493 -10.006 531.075
87.2833 -0.83053 531.245
113.996 -2.22136 531.294
-54.1082 10.2274 530.931
-33.618 45.7357 530.644
13.8524 -16.1293 531.266
90.6592 -25.8748 531.468
-72.5219 -35.4643 531.308
112.764 -37.5715 531.603
-21.3586 40.6652 530.703
-121.97 -79.3242 531.617
-28.1713 47.6229 530.621
51.9311 21.966 530.967
-15.0943 -94.4054 531.902
-19.3096 -40.3404 531.412
-45.9117 23.9044 530.798
23.4609 -47.4466 531.536
87.6096 -37.0103 531.537
48.0258 36.1343 530.818
-51.8235 13.7625 530.865
119.742 -4.53937 531.28
-81.8145 -21.9654 531.134
89.5498 -33.3895 531.49
-35.3155 16.2438 530.86
67.3354 -79.64 531.868
-13.9509 26.1274 530.793
-102.113 -26.1362 531.124
-60.2115 -16.0316 531.096
-105.965 -3.88732 530.914
34.3981 45.7574 530.68
-70.5639 -33.5121 531.226
-106.75 -39.8813 531.226
83.8443 -37.1458 531.485
60.1958 16.1537 530.974
-59.777 45.8368 530.528
13.8508 -18.0742 531.203
44.4231 16.1271 530.944
-52.5853 11.9552 530.836
-34.3175 44.1738 530.575
115.959 28.0812 530.942
-49.5898 40.0721 530.587
24.9926 -56.4938 531.559
-79.1852 -35.7365 531.218
54.1358 36.1316 530.776
-56.7624 1.9499 530.911
-42.007 36.1214 530.626
-5.61749 -16.1258 531.141
-23.8069 44.5903 530.569
58.038 21.9626 530.883
125.535 -76.576 531.861
119.105 -64.8662 531.747
28.4725 36.0345 530.711
78.777 -33.2913 531.404
56.0781 36.1297 530.747
-101.806 -15.9816 530.974
-107.993 -55.9119 531.318
51.9085 36.1287 530.736
-118.045 -77.0787 531.488
36.0608 46.6777 530.614
-21.198 -42.5591 531.322
-104.062 -35.9713 531.138
121.489 -6.67142 531.213
-39.9756 33.9618 530.607
124.087 23.9506 530.941
43.2853 45.5676 530.627
116.025 -2.05381 531.159
13.8506 -23.9148 531.196
-47.8461 23.899 530.677
-5.61681 -13.8993 531.076
-37.8441 23.8991 530.684
41.8945 10.0868 530.926
120.085 24.2987 530.911
54.1394 23.9053 530.812
64.9992 6.67615 530.982
27.5857 -54.6293 531.471
64.4407 8.20496 530.964
-130.016 -67.9965 531.345
-45.8894 36.1155 530.541
-77.8514 -35.8003 531.131
110.774 -10.4252 531.185
31.0599 40.8429 530.608
-124.238 -79.8559 531.45
-18.9879 -96.6065 531.754
-49.7881 21.9531 530.65
89.4818 -3.8886 531.086
-49.6917 25.6555 530.606
26.6563 -54.8112 531.436
116.622 55.2869 530.584
-120.629 -79.4818 531.43
-25.8289 46.2188 530.448
62.3205 10.1218 530.901
80.6195 -35.3262 531.322
59.8169 17.9897 530.815
-103.902 -3.90762 530.758
33.4163 44.3092 530.53
-49.4929 38.1335 530.461
-115.397 -13.8921 530.826
-43.9404 36.1119 530.487
57.9333 38.1163 530.621
-114.674 -71.772 531.342
48.0177 23.9013 530.728
-41.997 33.8907 530.499
-11.91 21.9531 530.646
-5.61645 -21.6833 531.043
16.6352 -47.565 531.305
-35.8961 18.0629 530.641
44.7235 42.0607 530.547
-39.8987 26.1162 530.562
116.666 26.9611 530.786
-56.2962 6.2836 530.71
-32.3999 9.95131 530.713
13.8472 -21.9624 531.066
-63.371 41.3811 530.385
-81.7789 -20.0102 530.903
49.9504 36.1195 530.599
-20.6083 39.4433 530.463
42.3485 46.5744 530.492
-106.14 -37.8391 531.02
110.353 -18.0732 531.166
-102.921 -33.9139 530.986
-102.069 -23.9012 530.895
46.1278 38.131 530.564
65.5445 3.89524 530.895
21.6165 21.9541 530.667
56.0729 23.9002 530.7
-102.593 -6.10904 530.728
-81.9122 -18.0628 530.865
112.271 -3.88845 531.029
90.5935 -13.8992 531.083
-107.912 -4.02452 530.697
13.846 -20.0143 531.019
-49.3521 34.026 530.442
50.1802 23.9548 530.681
59.9436 41.9481 530.53
114.561 -39.2217 531.334
-43.9369 33.8873 530.444
-6.73076 -45.888 531.211
54.1217 28.0651 530.641
16.3401 8.34097 530.759
-19.2188 36.6645 530.453
52.0948 23.8348 530.673
-65.1036 -24.4588 530.927
-47.982 33.8065 530.427
-129.417 -63.8423 531.171
-18.6633 35.5533 530.447
117.545 -2.49822 530.989
72.7999 -23.0763 531.101
-60.5838 44.706 530.296
-15.0547 28.6135 530.507
-101.825 -20.0822 530.811
128.054 24.4585 530.758
-22.1596 42.1577 530.375
-55.8054 8.06088 530.627
-128.532 -60.0627 531.125
21.3365 20.5624 530.624
-66.5852 -27.7015 530.921
-40.0486 29.9987 530.444
-47.9573 35.9653 530.373
17.7971 9.86829 530.704
18.6997 11.8129 530.687
19.6705 16.1171 530.649
-40.0466 31.9412 530.417
-10.4386 -49.4083 531.184
-57.8024 46.6455 530.249
54.1171 26.118 530.594
118.034 25.706 530.691
-37.9799 36.0637 530.363
-8.00092 -47.631 531.154
29.6613 38.3303 530.444
87.7807 -1.9417 530.887
-102.047 -21.9509 530.781
40.0977 8.20108 530.724
-81.7564 -16.1139 530.757
-76.0732 -35.857 530.941
-56.7308 3.89296 530.616
-8.3285 9.60471 530.637
-16.7187 31.9417 530.425
-129.565 -66.0615 531.124
-15.8859 29.9984 530.435
-19.7667 -42.0444 531.069
-36.2256 19.9713 530.49
21.8231 -47.925 531.182
-45.8792 26.1095 530.421
-68.2669 -29.8494 530.885
43.7649 13.8565 530.662
-43.8841 26.1344 530.418
44.6743 18.0623 530.621
-30.1503 46.7011 530.249
-45.8763 28.0518 530.39
-40.045 28.0522 530.396
-79.6058 -4.07067 530.622
23.6466 26.391 530.505
115.516 29.73 530.609
-80.2294 -5.98937 530.633
66.6555 -10.0951 530.888
54.1049 33.8893 530.475
19.9676 -47.9488 531.152
112.426 -35.9347 531.177
-49.5569 23.5398 530.404
50.1596 33.8326 530.461
-31.96 46.2804 530.224
-129.704 -70.1033 531.115
126.14 24.12 530.656
58.0022 23.8937 530.556
-36.335 38.2267 530.286
110.491 -19.9589 531.024
-25.8095 -18.0608 530.803
68.8828 -15.5631 530.916
-81.3707 -11.9436 530.656
114.193 -37.9865 531.176
-51.3432 15.9273 530.447
-62.6079 42.4764 530.193
59.6708 20.0051 530.573
61.8016 46.1194 530.339
90.5799 -23.9062 531.003
22.5805 23.8898 530.464
-116.855 -75.3597 531.14
61.3094 44.7088 530.33
-53.904 46.6358 530.139
-58.7732 -13.24 530.663
-102.176 -27.9228 530.727
-102.018 -18.0547 530.632
124.611 -75.4082 531.482
32.707 43.0394 530.288
-79.7425 -33.9277 530.804
44.9265 40.5433 530.323
67.9705 46.7427 530.301
87.7399 -35.7957 531.062
-110.571 -63.5255 531.011
-25.9112 -47.537 530.993
-111.578 -8.19006 530.513
-59.5119 -14.4434 530.645
47.9856 33.8826 530.374
52.0659 33.947 530.378
-23.9846 -96.546 531.421
43.2788 11.9483 530.547
-64.2421 -23.3365 530.701
-27.923 46.8015 530.129
70.1717 -18.0625 530.854
-102.001 -11.9405 530.541
69.4279 -16.6724 530.833
-47.9685 26.0228 530.276
-62.4042 -20.0567 530.666
116.046 -41.8483 531.126
-49.4702 31.9294 530.216
82.0743 -35.7509 531.016
-65.7248 -26.0231 530.707
31.9641 41.9257 530.246
64.0212 46.8121 530.249
110.509 -16.0867 530.878
-34.0063 11.8761 530.413
27.8952 33.9702 530.307
30.6692 39.7055 530.259
-47.8053 29.8012 530.226
61.7787 11.8375 530.548
46.0471 21.9441 530.433
-17.8433 -33.904 530.832
51.9948 26.1084 530.401
-20.0878 -96.5393 531.384
90.5508 -16.1161 530.833
-102.454 -10.0879 530.49
15.7776 6.11527 530.519
-123.689 -29.7238 530.628
-41.9775 25.9819 530.25
29.4054 -27.7899 530.832
33.2929 -20.8388 530.775
-38.0303 33.8149 530.181
-45.8602 29.9851 530.202
25.7665 30.5461 530.303
57.9181 36.0803 530.296
-72.0811 -33.8419 530.724
-47.9269 28.042 530.205
44.9341 19.999 530.412
-102.717 -31.8089 530.652
-110.03 -5.8278 530.409
23.519 -45.7553 530.962
56.038 26.1068 530.369
-36.5644 21.7981 530.261
-43.9826 31.9951 530.157
56.0296 33.953 530.289
-21.4513 -26.116 530.707
110.693 -13.8224 530.794
29.8501 -56.3777 531.052
-108.176 -57.8084 530.858
50.0852 26.1057 530.345
-45.8301 31.9756 530.149
-78.1084 -33.971 530.689
-112.501 -67.5467 530.934
48.1473 27.9925 530.319
65.3617 5.83716 530.542
-23.6719 -21.9454 530.654
126.533 -77.6187 531.374
-102.477 -30.0927 530.607
27.1809 -31.6795 530.813
66.6267 -8.0537 530.659
-51.1393 17.7722 530.252
-128.463 -61.9763 530.842
-23.959 -46.3202 530.857
47.9805 26.1042 530.318
-18.0505 -37.861 530.784
-41.8916 31.9236 530.124
-63.3263 40.7969 530.011
111.414 -31.9638 530.92
59.5363 40.1637 530.199
-53.7336 11.7574 530.283
24.9308 29.1546 530.245
40.309 46.6731 530.111
19.3828 14.444 530.367
-49.4566 36.1757 530.07
28.0129 -30.0098 530.776
-108.636 -60.2157 530.84
37.969 46.6326 530.102
-69.6524 -32.0163 530.642
-43.9611 29.9051 530.127
-107.306 -41.9515 530.672
86.0044 -35.9104 530.905
-38.0836 28.0391 530.149
24.6272 -42.3002 530.87
84.0931 -35.8036 530.899
50.1977 28.0457 530.277
-63.5759 -21.9413 530.551
54.083 29.9882 530.259
71.3595 -20.2814 530.73
54.0805 31.9302 530.236
-13.3979 -53.3659 530.895
18.0121 -47.8061 530.891
-12.6562 -51.6036 530.879
-122.085 -28.0495 530.505
-17.761 -36.319 530.734
24.0568 -44.1205 530.861
-7.46 8.42676 530.339
68.1815 -14.0547 530.651
-38.1987 29.8998 530.096
110.873 -26.0013 530.804
-61.4372 -18.0495 530.474
-116.244 -74.0538 530.891
46.3395 36.2079 530.15
-51.1105 41.9025 529.953
-119.94 -78.0576 530.918
24.6859 -57.8187 530.952
110.735 -23.8031 530.776
-38.0166 26.0726 530.109
70.7958 -19.1677 530.673
72.2812 -21.9473 530.698
110.804 -11.9434 530.661
-21.7927 -44.118 530.74
78.2516 -31.8318 530.779
52.0197 31.9263 530.169
25.5104 -38.0675 530.751
110.634 -22.1341 530.736
-47.7171 31.9865 530.016
57.8791 33.9479 530.156
-103.941 -33.8842 530.518
-75.7999 -34.3499 530.561
-58.2611 -12.0482 530.386
-124.024 -78.102 530.875
56.0174 29.9834 530.173
-11.8284 -50.0956 530.785
-102.448 -8.04764 530.267
61.2157 13.4245 530.319
117.949 -3.94033 530.556
-109.448 -61.9637 530.732
-101.956 -13.8791 530.309
50.0724 31.9793 530.126
47.9645 29.9816 530.139
-56.0919 46.6085 529.829
-38.0712 31.9149 529.98
57.8814 25.9783 530.176
-18.1683 -32.0542 530.575
-73.8853 -34.0505 530.509
59.3524 21.9348 530.208
-13.3772 24.7047 530.075
-43.9001 28.0311 529.998
116.353 -43.9685 530.879
114.107 -3.88452 530.516
73.5686 -24.1671 530.63
50.1819 29.9799 530.11
-105.698 -36.1784 530.467
31.4447 -56.6038 530.854
52.125 29.9798 530.11
111.95 -6.12839 530.521
67.3015 -12.0788 530.504
-41.748 27.8223 529.983
-81.1512 -30.2684 530.434
115.413 36.0878 530.134
-114.292 -11.7943 530.216
76.4064 -29.6144 530.658
-26.5296 -16.3803 530.384
-36.5394 36.2103 529.897
89.5157 -6.10658 530.462
-41.953 29.9704 529.943
-34.4715 13.8811 530.098
118.663 -63.6651 531.017
89.8293 -30.0038 530.674
115.607 -39.9403 530.797
89.4148 -32.2278 530.688
80.0684 -33.9708 530.688
122.85 -71.7374 531.086
52.1226 28.0358 530.086
40.754 9.99771 530.228
46.5662 33.8602 530.023
90.5024 -18.0521 530.549
-49.6283 28.0274 529.928
122.718 -9.16244 530.517
47.9546 31.9181 530.032
89.9297 -8.05018 530.448
67.2449 -92.0472 531.153
67.1515 -9.71611 530.415
-103.808 -5.93581 530.124
116.695 -58.0936 530.917
111.078 -28.0573 530.641
-55.1163 9.82808 530.051
78.237 -76.0089 531.014
-126.008 -78.1294 530.719
121.873 -8.0505 530.464
-11.4329 20.5389 530.006
-118.1 -75.8526 530.696
57.7162 29.9494 530.015
-112.464 -9.4328 530.103
46.2213 23.6626 530.045
-121.961 -78.0245 530.693
57.507 28.1112 530.013
63.892 9.71962 530.185
65.832 46.7494 529.854
24.9462 -40.5544 530.571
20.4805 19.1523 530.03
-113.871 -70.1004 530.624
90.494 -21.9392 530.5
55.9992 28.0313 530.001
-9.9448 -48.0552 530.572
-111.173 -64.4444 530.566
-69.1944 -30.8172 530.324
111.303 -30.1177 530.582
-20.0489 -28.0425 530.36
-113.566 -10.5424 530.063
74.6038 -26.1605 530.482
116.014 -3.80756 530.344
115.377 38.0188 529.968
120.865 -67.5448 530.918
120.026 -66.033 530.896
-116.627 -16.9267 530.103
-67.43 -28.4082 530.276
-115.207 -72.0877 530.594
116.653 -48.0689 530.724
-111.909 -66.2933 530.545
-22.6464 -45.4552 530.491
-107.795 -43.8695 530.346
111.16 -9.85391 530.369
-32.5205 11.3805 529.963
90.4814 -19.9919 530.426
-80.5391 -7.7669 530.061
-103.61 -32.4784 530.246
34.0015 -58.2259 530.678
75.8298 -76.0663 530.899
115.382 31.9157 529.993
57.6531 31.9101 529.899
-36.3964 23.3064 529.835
17.4282 8.60708 530.046
-24.2091 -20.5401 530.243
56.173 31.7249 529.896
-52.7406 45.2023 529.604
81.1084 -75.8788 530.881
-27.2744 -48.6012 530.47
-18.0143 -39.9552 530.405
-107.223 -39.9759 530.266
42.3486 11.7148 530.029
26.2347 -33.9691 530.409
-113.197 -68.4184 530.506
46.5555 25.8063 529.902
-50.525 39.6586 529.633
111.283 -8.04798 530.298
26.0582 -56.113 530.593
-107.785 -46.0863 530.297
69.9835 -76.2422 530.831
-78.5257 -3.71416 529.959
-80.076 -31.9904 530.209
67.6386 -93.961 530.968
15.9836 -46.2398 530.463
-19.4898 -29.4253 530.258
-42.7639 31.8966 529.675
67.6186 -77.5364 530.813
-120.315 -23.5854 530.047
-105.597 -5.60059 529.908
88.0336 -3.60462 530.179
-128.465 -64.0338 530.389
120.017 -6.03423 530.242
28.0933 -55.8764 530.546
75.6975 -28.1539 530.363
-25.0364 -19.1481 530.13
22.3481 -46.5624 530.444
121.294 -68.4521 530.768
-22.0108 -96.2477 530.797
-43.3147 30.7845 529.628
116.918 -59.1777 530.669
-22.2615 -24.1453 530.148
117.995 -62.1178 530.695
-108.471 -5.93278 529.849
-43.3127 31.3377 529.604
-14.5058 -92.2556 530.747
-7.6717 -46.2098 530.344
112.029 -33.9883 530.412
-127.757 -76.0162 530.427
-20.1576 -43.2543 530.296
68.6724 -76.7821 530.722
-41.9281 26.9023 529.628
60.9516 43.5408 529.632
116.613 -49.9969 530.545
-44.4234 25.7928 529.622
-42.3417 28.4258 529.598
-18.7461 -30.6225 530.159
74.1339 -75.9918 530.701
113.852 -36.2375 530.405
-16.6928 31.3376 529.602
69.8487 -96.3057 530.862
125.831 -76.0006 530.761
-128.516 -66.2621 530.293
-48.4858 28.0085 529.57
77.7774 -30.6297 530.282
88.012 -34.1034 530.327
-110.455 -7.48554 529.789
-48.8558 26.6223 529.574
32.5778 -57.4855 530.442
55.6872 32.4511 529.674
26.5945 -32.1984 530.203
59.3008 23.8574 529.748
122.107 -70.1076 530.678
-18.3779 -41.7765 530.212
-11.2999 -48.1667 530.274
28.0119 -96.4249 530.755
-37.2091 26.3442 529.558
47.0883 28.2902 529.653
-48.8432 36.3175 529.438
124.361 -73.8742 530.678
71.8987 -75.8399 530.608
-48.7072 31.7454 529.466
15.4786 4.7196 529.801
-105.498 -34.4036 529.966
-80.5252 -30.7966 529.97
115.316 -38.1759 530.327
-17.8363 -95.8482 530.639
-29.9097 45.5772 529.357
-48.1792 30.0535 529.453
-37.2025 30.4978 529.465
-48.8485 24.4004 529.495
83.9846 -34.1423 530.215
28.6236 -28.3975 530.079
119.209 25.2436 529.735
-50.3609 37.837 529.365
-46.0701 31.3272 529.426
-128.591 -71.9907 530.223
-117.587 -74.4947 530.26
20.091 -46.6744 530.214
-11.1589 -46.908 530.167
50.4069 31.3349 529.556
58.7193 37.4312 529.506
116.586 -56.0952 530.421
-32.0176 45.1757 529.293
23.6516 -93.9917 530.617
119.38 -64.436 530.496
-33.5329 43.9571 529.3
-119.62 -76.8988 530.247
116.921 55.1659 529.424
58.3924 30.0043 529.56
-33.3284 12.4813 529.574
-78.4801 -32.2722 529.9
23.9331 -59.8007 530.284
116.574 -53.8677 530.365
118.514 -5.45287 529.936
58.4981 32.1087 529.511
-128.622 -67.8877 530.122
-34.9738 40.0032 529.299
-6.71657 -44.4034 530.091
79.8004 -75.9632 530.5
82.0346 -34.2063 530.13
116.568 -51.9215 530.339
-61.1991 43.6911 529.213
117.277 -60.3981 530.406
88.4849 -32.4701 530.111
-34.9855 18.0232 529.475
67.163 -80.5471 530.505
116.964 26.9018 529.618
115.269 42.4187 529.472
120.851 24.6843 529.638
25.4852 -57.4627 530.227
58.7113 36.3173 529.435
26.5556 31.6045 529.428
-103.243 -30.7858 529.784
-81.0315 -12.4753 529.651
-35.7108 37.599 529.267
125.284 24.6835 529.62
45.5503 24.2622 529.504
45.4016 37.4227 529.387
113.321 -5.45218 529.87
79.5952 -32.4669 530.059
-107.133 -37.4456 529.82
-104.526 -6.48382 529.542
-128.008 -73.9638 530.105
58.4392 26.8948 529.48
58.1552 33.5443 529.419
-72.1789 -32.4516 529.809
34.8614 45.174 529.273
69.4145 45.3628 529.318
45.5101 35.8688 529.36
-102.643 -11.9183 529.552
-128.45 -69.7436 530.023
-28.1129 45.6668 529.143
-52.2959 44.0526 529.115
-59.6155 45.1587 529.094
-126.243 -76.4117 530.078
-20.5822 -26.9028 529.792
123.12 -10.2607 529.856
89.8182 -9.14989 529.79
-51.0339 37.961 529.159
86.0627 -34.314 530.008
68.5545 -95.5501 530.526
123.953 -11.9252 529.857
35.9657 45.446 529.212
-18.9224 -43.0016 529.919
18.1485 -46.7819 529.997
45.7709 26.1506 529.383
-10.3219 -46.8888 529.95
-102.662 -29.6689 529.653
124.148 24.6782 529.505
89.8411 -28.5743 529.925
-102.622 -8.03512 529.446
122.201 24.6771 529.482
-56.5987 5.82455 529.38
-35.3423 20.0492 529.282
-81.0311 -29.1141 529.649
45.6688 34.0891 529.27
-35.7098 22.1722 529.252
58.4793 27.8857 529.342
-26.2321 45.2941 529.058
124.773 -13.5886 529.808
116.512 -46.0684 530.086
21.5625 20.2361 529.341
115.873 -4.71089 529.701
120.872 -7.4847 529.729
119.91 56.2465 529.158
123.555 -72.2413 530.296
-74.3757 -32.9965 529.65
-121.685 -76.6734 529.968
-109.256 -6.64788 529.354
67.1349 -81.6241 530.284
-123.808 -76.4595 529.951
-77.1471 -33.5504 529.638
-55.9997 45.7014 528.959
-119.257 -20.7871 529.456
-50.3207 24.1865 529.153
-79.3596 -31.3295 529.598
-13.3724 -52.4315 529.882
-104.866 -33.8238 529.578
71.869 -96.3587 530.39
66.1556 45.6038 529.113
68.0234 45.644 529.097
110.88 -14.695 529.694
45.9398 29.9283 529.199
43.1577 44.0483 529.063
41.8634 45.5236 529.039
-107.687 -6.09267 529.269
-51.1235 40.0501 528.939
45.9388 27.9882 529.188
-36.0685 24.0431 529.092
-17.2489 -35.4924 529.651
-16.4332 -95.21 530.18
-106.156 -6.43082 529.251
37.8901 45.428 529.003
60.911 16.3538 529.279
-64.6442 -23.2813 529.441
62.7271 45.3368 529.015
-52.415 14.1328 529.119
-108.771 -59.623 529.688
64.0366 45.7051 529.002
44.342 39.8501 529.024
-102.614 -27.9919 529.403
45.8796 32.0626 529.085
110.862 -16.0791 529.61
-36.0584 34.068 528.942
-113.109 -10.8027 529.226
-35.8494 35.9361 528.924
-15.1973 27.9796 529.025
76.0171 -96.3364 530.268
88.1 -4.7088 529.466
18.6761 9.81326 529.229
119.716 -6.55772 529.525
-8.30598 7.91615 529.198
-71.7982 -31.7648 529.456
113.665 -34.1123 529.752
43.1697 14.4121 529.209
-36.0614 26.0387 528.984
40.0076 45.5134 528.921
89.2445 -31.3343 529.678
-56.5693 8.3148 529.105
-70.2802 -31.5049 529.438
125.4 -74.6586 530.111
110.862 -21.3477 529.609
-80.9708 -14.1285 529.255
30.4579 -57.4167 529.802
110.853 -18.0187 529.568
-104.167 -31.8698 529.359
115.167 44.0432 529.006
80.9194 -33.8281 529.644
-62.5017 -19.3028 529.296
-18.8851 35.1712 528.874
20.9975 19.6717 529.071
-80.9834 -28.2655 529.338
-23.6245 -46.8568 529.589
110.849 -19.959 529.55
44.5872 38.0553 528.932
82.5794 -33.5492 529.619
-109.817 -8.15271 529.091
-24.1406 43.6534 528.756
-54.2003 45.6232 528.693
-77.9001 -4.15159 529.101
84.0556 -33.3632 529.601
87.9383 -33.1786 529.605
64.3341 10.5877 529.171
62.5578 12.6557 529.148
89.1912 -6.92518 529.361
-57.9075 45.3999 528.674
-75.9964 -33.5321 529.349
-33.5686 13.8519 528.988
40.0236 10.1619 529.13
112.756 -6.92555 529.39
-107.977 -7.97379 529.062
-17.2429 -38.2522 529.466
-21.126 -44.6325 529.517
-51.7216 18.0832 528.91
-36.0517 27.9699 528.841
-17.2431 -40.0082 529.472
86.0371 -33.5458 529.566
-35.9995 29.9822 528.817
44.2623 19.9467 529.022
-103.929 -8.02882 529.045
41.7189 12.3586 529.081
-110.954 -63.4857 529.522
-120.851 -26.316 529.152
-17.4051 32.3965 528.782
-10.5798 11.9131 528.972
121.338 -8.5879 529.345
-79.4119 -6.50507 529.023
26.5656 -56.8431 529.627
60.6571 18.1181 529
-54.537 12.3259 528.876
-36.0438 32.1163 528.725
-50.3079 32.0937 528.703
-51.9033 42.1653 528.61
-31.9955 44.1219 528.62
60.7425 41.9205 528.778
-61.6803 42.5325 528.588
116.269 27.839 528.981
114.591 -35.6238 529.543
27.6733 -56.7013 529.598
115.389 52.0507 528.755
118.059 55.6472 528.727
59.8304 24.0275 528.917
60.2194 39.752 528.771
114.068 -6.18463 529.26
59.7462 37.9341 528.785
-102.554 -24.097 529.094
29.8426 37.7919 528.736
-20.2614 37.9252 528.66
-102.646 -14.0103 528.997
24.6788 27.9684 528.811
-50.1051 26.0808 528.716
-102.459 -16.3378 529.013
-6.70778 -43.5137 529.398
-50.2282 34.0483 528.637
-50.2892 35.9385 528.615
116.115 53.9833 528.701
-50.0995 29.8793 528.66
-116.49 -73.4607 529.479
-51.3626 19.844 528.743
23.229 -43.793 529.422
-6.56334 5.68134 528.936
-18.3236 34.1882 528.662
89.5815 -9.97143 529.21
89.7464 -27.7127 529.367
43.68 41.9119 528.675
-52.2132 16.1717 528.76
-25.7606 44.1897 528.545
22.0948 21.8775 528.815
-51.265 23.8095 528.687
-13.3436 23.8123 528.74
117.981 -6.36869 529.202
27.2406 -29.509 529.27
-25.264 -18.0023 529.085
125.203 -14.6835 529.279
-127.674 -72.121 529.412
60.1232 22.0634 528.852
76.9917 -29.3739 529.332
-106.594 -35.6541 529.112
19.8805 15.7866 528.833
-31.8944 12.0748 528.779
-50.9736 36.2555 528.533
62.2201 44.0123 528.632
59.5579 29.9952 528.751
-74.0426 -31.9396 529.099
115.544 29.9077 528.83
-63.144 38.4659 528.486
65.4418 7.897 528.944
59.5787 34.0524 528.701
115.399 32.2586 528.8
117.996 26.1246 528.856
-14.2643 25.7462 528.661
44.5192 22.1524 528.78
112.754 -33.8112 529.38
-127.523 -59.8505 529.248
43.4155 16.0628 528.826
20.432 18 528.773
-77.7188 -31.9528 529.066
25.8254 29.8983 528.67
-33.9971 42.1543 528.471
-126.997 -73.9989 529.363
-55.9127 9.93892 528.72
116.023 -6.09048 529.12
-17.2333 -34.075 529.17
30.9413 39.58 528.583
112.423 -8.0302 529.128
-123.58 -30.3689 528.974
-102.515 -17.9959 528.892
68.371 -13.5706 529.108
15.5896 3.88018 528.872
-68.7498 -29.0805 529.038
59.6805 35.9112 528.648
-53.5707 13.8128 528.675
128.312 25.3117 528.844
-16.3836 29.8933 528.576
-22.6055 41.646 528.458
-19.9268 -44.2117 529.222
-28.0298 44.1792 528.42
-78.1311 -6.08662 528.789
-56.017 44.1489 528.374
19.5082 13.7532 528.757
-21.1072 -25.4802 529.045
-57.2322 -8.16415 528.833
-21.5263 39.7918 528.456
23.7481 25.9291 528.646
-34.14 15.9388 528.645
89.1369 -7.75183 529.039
34.2565 44.0009 528.493
63.9035 11.9096 528.82
-50.3554 27.9521 528.505
-102.628 -25.861 528.906
-106.009 -8.07467 528.742
-23.3204 -21.5996 528.981
29.2781 36.8091 528.535
-79.6315 -8.10398 528.771
-51.2511 22.1427 528.544
28.725 35.7032 528.541
-103.961 -29.8498 528.924
84.0871 -32.0925 529.219
16.3856 -45.3477 529.235
17.9701 7.97105 528.757
74.7473 -25.4845 529.139
-79.7647 -29.8308 528.941
-12.5643 22.0886 528.575
59.5393 32.0156 528.585
112.446 -31.9732 529.234
-127.515 -70.0989 529.214
70.6342 -17.8904 529.045
-28.0392 -49.8682 529.178
20.2642 -45.5305 529.212
27.617 32.6573 528.524
-114.219 -13.7819 528.719
-119.934 -75.814 529.262
33.3653 -19.661 528.987
-17.6625 -42.3204 529.11
-124.135 -75.5831 529.241
-125.747 -75.6438 529.236
87.97 -31.6996 529.161
-75.9346 -32.1203 528.919
-10.1117 9.87589 528.64
62.2293 13.9635 528.711
-50.9632 26.8412 528.426
19.3203 11.9063 528.658
-27.1893 -13.5631 528.815
16.2215 5.92806 528.703
-106.326 -33.9946 528.875
-108.081 -52.0701 529.03
80.1946 -31.9485 529.132
121.914 -10.0425 528.998
21.9248 -45.5264 529.164
-117.968 -73.8534 529.202
125.892 25.1933 528.68
88.0057 -6.08822 528.898
60.5584 19.9316 528.622
-29.9273 43.9825 528.271
-114.388 -69.8146 529.159
66.9593 -10.0578 528.896
-6.1448 3.87914 528.657
-12.6143 -49.5858 529.122
59.7197 26.0171 528.549
-34.5379 40.1102 528.28
-80.4412 -13.6705 528.688
-127.599 -68.2003 529.101
-19.4189 36.2415 528.33
44.5536 23.9686 528.53
123.944 25.1911 528.635
-23.6571 42.5059 528.256
-18.0757 -95.3641 529.493
89.141 -29.6362 529.064
-21.9562 -95.6383 529.477
119.952 25.411 528.608
120.059 -8.09586 528.899
-122.025 -75.5605 529.136
-34.7773 19.9242 528.416
-59.7337 -13.7807 528.673
-9.97163 -45.8107 529.032
76.5474 -27.8914 528.999
82.0934 -32.0486 529.04
-34.9036 38.1713 528.236
-19.4379 -27.9628 528.847
112.149 -9.94622 528.88
61.5396 42.6962 528.332
-59.7843 43.9712 528.138
69.9304 43.9873 528.33
-113.378 -12.172 528.545
-68.0969 -27.8344 528.75
-72.0362 -29.8962 528.76
69.7214 -16.0561 528.845
-107.663 -39.8647 528.791
44.6558 25.8454 528.432
44.5215 36.084 528.339
59.6373 28.0174 528.432
-79.8689 -9.95884 528.561
-103.317 -12.0534 528.543
37.9746 44.3953 528.25
123.447 -12.1802 528.879
34.0914 -17.9925 528.793
17.8731 -45.6479 529.014
-57.8414 -10.0148 528.579
-127.453 -63.9717 528.956
-25.8675 -48.0199 528.965
-26.0754 -16.0504 528.678
-57.7052 44.3818 528.091
-64.1626 -22.0848 528.673
42.0564 13.9149 528.511
40.5542 11.972 528.523
36.1058 44.1855 528.22
-8.57167 -45.7627 528.955
-118.318 -20.1983 528.562
-60.6675 -15.7719 528.608
86.0237 -32.0683 528.972
86.3766 -3.84085 528.72
-21.858 -45.9927 528.932
33.3171 42.6876 528.224
44.7607 27.9448 528.366
42.0516 44.0468 528.216
89.6692 -26.0275 528.911
67.6787 -11.9002 528.748
-103.761 -9.90182 528.472
89.6468 -11.9009 528.779
-111.716 -10.1722 528.461
-53.9688 44.3329 528.056
-17.3315 -31.946 528.784
114.102 -34.0173 528.991
116.873 -57.9062 529.204
-66.405 -25.7378 528.643
44.7543 32.0899 528.29
-80.5966 -26.0127 528.617
29.7346 -26.0769 528.782
44.7555 29.8777 528.304
-102.555 -20.0861 528.529
-102.632 -22.1348 528.545
-62.0467 -17.9848 528.568
121.962 25.1821 528.446
-80.6176 -15.9266 528.495
23.7594 -41.9682 528.883
-127.423 -62.0186 528.832
31.4693 40.3777 528.154
-107.449 -38.2324 528.646
-18.1043 -29.7819 528.703
-58.5313 -11.5254 528.478
15.4394 2.21756 528.459
24.4034 -39.9604 528.838
-8.0139 6.28182 528.373
-80.014 -11.893 528.424
-21.6443 -24.0749 528.62
-23.8867 -95.5981 529.255
23.1775 24.0665 528.249
-9.46069 8.02621 528.341
71.8262 -20.0196 528.712
63.9856 44.3017 528.123
-115.142 -15.4885 528.382
-70.1286 -29.8302 528.576
112.278 -29.8369 528.849
-107.991 -9.87918 528.341
-116.2 -71.9144 528.882
-103.107 -13.5519 528.379
32.3871 41.7552 528.089
65.6855 6.2572 528.453
31.7759 -22.417 528.658
78.2045 -29.4977 528.789
25.5527 -33.9089 528.746
-32.1378 13.7401 528.234
15.4487 -39.8641 528.779
67.8268 44.383 528.104
118.13 -8.02265 528.631
-110.243 -61.8928 528.77
-119.017 -21.2986 528.392
-22.7476 -22.4117 528.544
-105.576 -32.1875 528.506
-127.408 -65.8873 528.771
-55.6012 12.0531 528.18
-16.2219 -39.9684 528.701
63.7905 13.4478 528.34
-108.25 -56.0313 528.697
66.3571 -6.08439 528.511
-63.2754 -20.332 528.429
40.1687 44.1674 528.004
126.477 -75.4537 529.199
66.1592 44.1702 528.038
44.4614 34.0134 528.095
27.899 -27.9507 528.622
-80.6005 -19.7965 528.383
-24.2201 -19.6414 528.466
-73.7594 -30.157 528.485
-65.7199 -24.2516 528.434
74.0434 -23.918 528.638
-107.993 -50.0907 528.599
43.5039 17.8424 528.22
-107.741 -41.9397 528.524
-34.892 22.1223 528.06
-108.137 -54.1061 528.626
65.2251 9.96157 528.308
-6.69848 -42.3467 528.663
-61.2835 -16.6866 528.352
-112.26 -65.7257 528.708
-77.9213 -29.957 528.44
15.7224 -42.0705 528.685
-80.6901 -17.8381 528.323
-13.6751 -51.9846 528.726
-103.798 -27.9375 528.376
61.8956 15.7682 528.224
-80.4399 -24.143 528.366
31.9942 -58.2804 528.835
114.152 -8.07108 528.504
122.567 -69.8022 529.064
-109.861 -9.89612 528.178
-109.106 -60.0571 528.625
-16.6595 -35.9716 528.544
115.55 -36.0952 528.731
111.557 -13.8016 528.525
-16.383 -37.9093 528.547
68.6574 -95.0303 529.178
-80.6393 -22.1244 528.292
-60.8447 42.8328 527.742
116.458 -42.1957 528.76
-18.155 -43.8884 528.572
-67.2206 -26.3866 528.34
120.476 -65.8564 528.966
-122.588 -29.5921 528.279
-27.178 -48.9829 528.594
-32.662 42.8348 527.767
-107.28 -36.1253 528.359
25.9565 -32.0953 528.512
-79.9284 -28.0034 528.316
72.7175 -21.5788 528.482
-122.122 -73.9005 528.658
33.5814 -58.8257 528.755
-75.9512 -29.9977 528.334
-108.264 -11.5174 528.12
-34.333 17.972 527.967
-12.3015 -48.0136 528.588
-14.9812 26.8152 527.914
-7.52694 -43.9971 528.543
-106.033 -9.83143 528.091
-125.658 -74.0072 528.629
22.1639 -44.1577 528.573
87.9465 -29.8838 528.543
73.2671 -22.6844 528.456
70.3091 -95.5703 529.1
111.869 -11.943 528.414
119.571 -63.9629 528.883
-103.117 -24.2407 528.195
-107.952 -48.1348 528.399
24.8488 -37.906 528.5
80.1173 -76.2913 528.925
88.1867 -8.01789 528.324
19.2981 10.5101 528.05
116.033 -38.0728 528.628
70.0615 -76.4819 528.901
17.3637 6.63982 528.081
24.5804 -59.5093 528.68
-11.8153 -45.9307 528.502
67.4363 -9.67727 528.295
112.017 -27.9452 528.522
26.074 -58.0674 528.66
116.767 -50.1023 528.724
-108.597 -58.1404 528.458
116.02 -7.96301 528.346
-112.164 -12.1606 528.039
111.44 -16.0426 528.405
42.4087 15.983 528.014
89.5719 -13.8275 528.337
-109.717 -11.6995 528.014
111.569 -24.1471 528.456
-53.4872 15.9413 527.851
116.767 -53.978 528.726
-51.4481 29.5686 527.723
-103.626 -26.2157 528.142
-113.783 -68.0665 528.495
61.3158 17.6964 527.992
116.76 -52.0371 528.694
71.3125 -18.5296 528.322
-105.322 -30.0464 528.158
68.2805 -77.581 528.839
124.298 -71.8147 528.863
111.437 -22.1287 528.395
29.9928 -57.9178 528.592
75.7461 -26.2779 528.378
-118.94 -21.8376 528.047
113.947 -32.3283 528.488
27.9726 -57.7878 528.586
86.6741 -5.91434 528.21
-16.6519 -34.0191 528.305
-124.022 -73.8781 528.497
-16.1514 -42.0212 528.375
-26.2979 43.3734 527.596
30.5086 -24.1981 528.275
66.8692 -8.01615 528.185
69.0891 -14.3782 528.243
111.37 -17.9768 528.336
116.755 -55.9101 528.671
115.471 33.9985 527.864
111.424 -19.913 528.332
-34.8699 23.49 527.726
32.5794 -20.7385 528.219
-126.768 -69.9926 528.411
-72.0594 -28.2558 528.12
-56.0296 43.3658 527.503
111.906 -26.1193 528.372
-56.9946 -3.31305 527.912
123.747 -13.4385 528.267
-78.3324 -7.90113 527.908
-20.0762 -26.3775 528.157
-111.632 -64.1762 528.357
16.2113 -44.0934 528.369
24.3097 -94.2266 528.817
32.0639 -95.5231 528.839
-53.909 43.5472 527.47
62.9329 43.3773 527.643
-76.8877 -4.14174 527.857
-107.904 -43.965 528.16
-20.0943 -45.698 528.305
116.724 -48.147 528.53
-107.907 -45.9021 528.174
117.762 -60.0581 528.636
-26.5952 -14.6484 528.014
-18.6375 -28.0354 528.133
118.567 -61.8775 528.639
116.334 -39.838 528.437
-16.0002 -93.9502 528.713
89.5548 -24.0583 528.236
-50.8813 25.9694 527.577
83.9605 -30.2144 528.277
-24.9359 -17.9654 528.002
124.947 -15.2066 528.197
122.297 -11.9484 528.164
86.075 -30.2551 528.267
79.9552 -29.9856 528.248
65.6852 43.5086 527.56
20.1361 -44.2512 528.274
116.56 -43.8476 528.413
41.3749 43.3674 527.523
34.7454 43.3665 527.512
-27.8541 43.3588 527.418
114.003 -9.7197 528.103
-57.9614 43.7493 527.368
117.902 -9.56308 528.104
-124.448 -33.7203 527.956
38.1697 43.587 527.506
-24.1719 -47.5101 528.221
20.9428 19.0679 527.693
26.3064 -29.9527 528.132
-105.089 -27.3602 527.912
-105.088 -26.807 527.906
36.2629 43.5028 527.489
-119.873 -74.0813 528.303
-106.349 -11.8783 527.766
-116.12 -17.4059 527.799
125.962 -73.8505 528.66
88.783 -9.67253 528.032
-111.692 -13.5362 527.767
39.7148 43.5024 527.485
-69.826 -28.3578 527.961
67.4772 -79.9825 528.615
25.965 -95.4961 528.69
82.1014 -30.0552 528.19
-10.0109 -44.5198 528.18
-50.8684 30.1052 527.443
-59.1382 43.3499 527.309
-126.046 -72.0119 528.237
78.0816 -76.4724 528.581
76.236 -76.4715 528.575
-6.69167 -40.091 528.126
115.28 -34.5692 528.256
-118.154 -72.4598 528.244
-31.255 43.3522 527.338
-107.258 -10.7717 527.707
89.5218 -16.0316 528.042
-73.0256 -28.4656 527.909
88.9833 -25.9888 528.127
68.0415 -93.9477 528.7
60.7056 40.0507 527.493
-109.466 -10.7714 527.691
113.328 -28.4803 528.181
88.764 -27.8144 528.138
120.114 -9.73357 528.022
-107.297 -34.5457 527.898
-76.6144 -28.4639 527.878
-30.9929 12.7104 527.578
-7.52078 -42.8547 528.107
-14.4449 -91.0376 528.518
-103.957 -22.9318 527.776
65.1522 11.3323 527.718
-59.1861 -12.4302 527.736
-11.4836 -44.3274 528.084
-64.1031 37.5497 527.274
-13.6045 -50.3226 528.131
-121.088 -28.4583 527.773
-113.425 -66.3591 528.119
116.044 -9.59201 527.955
-115.538 -16.8489 527.666
66.9119 -82.4601 528.522
72.2181 -76.3093 528.473
64.1456 43.4948 527.392
28.6934 -26.8098 527.96
-52.5243 17.9537 527.432
77.725 -28.104 528.037
-33.1813 41.6876 527.237
60.7121 22.3773 527.55
-16.1822 -43.7688 528.018
116.658 -45.9071 528.234
-78.5353 -28.4589 527.785
68.1455 43.5382 527.36
-115.768 -70.1564 528.082
115.393 31.4899 527.507
-54.5091 14.1972 527.399
121.949 -68.0532 528.391
15.4248 -38.1436 527.961
-105.29 -10.7681 527.533
67.6015 -91.8654 528.505
88.9304 -11.6029 527.814
22.6132 -42.5687 527.989
-16.637 -32.8832 527.831
-102.808 -17.9503 527.555
-102.817 -23.4765 527.598
89.4935 -22.3833 527.875
18.7257 7.46103 527.503
74.1039 -95.4623 528.502
-79.0465 -9.93895 527.509
88.9417 -24.5946 527.881
17.7938 -44.2632 527.946
16.5161 5.25148 527.5
39.8518 12.5697 527.469
60.68 38.1016 527.272
-126.655 -67.995 527.937
27.027 -27.9073 527.806
-31.5313 14.2233 527.339
-111.074 -12.4235 527.456
-121.501 -72.3291 527.964
-33.2961 16.1824 527.305
-6.68312 3.8704 527.451
89.4776 -17.4053 527.781
-76.1188 -29.0034 527.636
120.979 -11.8784 527.776
113.59 -30.1251 527.926
-105.933 -12.147 527.437
-102.802 -22.092 527.522
62.5381 16.4807 527.421
-62.9695 39.7393 527.025
66.2437 -4.13979 527.609
-17.7577 -94.8699 528.286
-54.1613 16.0701 527.241
89.4753 -19.7997 527.768
-104.433 -10.7653 527.393
-28.7764 -5.79566 527.456
-79.3299 -27.3418 527.557
69.3835 -94.8869 528.38
-52.4782 41.6663 526.969
-102.785 -19.6034 527.438
26.9947 31.4701 527.175
60.6819 24.0227 527.288
-111.146 -62.7267 527.801
-126.618 -64.3828 527.784
-74.0801 -29.3667 527.545
-126.606 -59.9556 527.734
117.177 -58.0598 528.08
72.1457 -95.434 528.346
60.3968 29.8157 527.211
43.5629 19.8803 527.261
-56.2525 12.3142 527.175
-8.33751 5.24955 527.307
121.062 -66.6383 528.14
123.911 25.6807 527.319
-111.899 -14.127 527.32
60.4426 33.9512 527.129
-106.419 -31.9132 527.457
-61.7374 41.3276 526.869
-77.4947 -8.14033 527.286
-104.435 -25.5847 527.4
-120.097 -72.0098 527.785
-79.155 -12.1442 527.311
-79.3113 -25.9546 527.433
125.822 -72.6134 528.155
-124.682 -72.3956 527.777
-6.68592 -41.1617 527.672
-107.72 -12.4188 527.261
27.5685 -27.3436 527.592
-79.431 -13.9387 527.31
24.7828 27.3257 527.097
-17.1803 -29.8269 527.542
123.636 -70.1371 528.109
60.4237 32.136 527.102
-6.68556 -40.0545 527.644
-65.7108 35.59 526.878
127.837 -74.1048 528.141
60.6655 25.9481 527.145
116.138 -10.4921 527.546
119.964 55.4611 526.961
115.283 49.9471 527.002
89.4417 -18.227 527.57
-110.563 -61.6042 527.654
-14.9854 -92.0653 528.064
-106.058 -14.0745 527.232
89.4446 -21.2661 527.586
84.2602 -29.2247 527.641
87.2132 -8.28104 527.456
64.8151 12.978 527.225
-21.3267 -46.683 527.625
-104.213 -24.0153 527.296
-51.505 29.7978 526.894
121.948 25.6743 527.188
-24.3285 41.6553 526.825
89.4371 -20.1595 527.542
-53.8374 41.9267 526.77
21.7695 -43.3694 527.642
-16.6083 29.5237 526.923
121.653 -12.793 527.506
87.8076 -10.0756 527.431
-17.7107 32.0047 526.895
-33.4419 17.9387 526.992
60.5349 36.0379 526.971
21.8373 20.1488 527.051
62.1667 41.7898 526.917
-66.5004 -23.8318 527.309
86.1289 -29.1846 527.582
-71.951 -27.4402 527.326
79.497 -28.9995 527.565
-109.779 -12.3544 527.133
-79.5529 -16.0062 527.203
123.675 -14.3576 527.49
23.1482 -41.4309 527.581
-75.8697 -27.7708 527.31
-119.402 -73.4826 527.645
-79.7745 -18.0489 527.208
-22.4507 39.8862 526.775
-77.8409 -27.8114 527.294
-59.8421 41.8662 526.699
81.8869 -28.9981 527.539
-34.0485 38.2028 526.766
41.576 16.0489 527.07
115.619 51.9559 526.859
75.9838 -95.3907 528.106
43.529 39.7263 526.851
114.405 -10.6275 527.406
-14.1245 24.281 526.902
-70.0196 -27.5639 527.277
-12.7605 -45.8456 527.524
60.5354 27.9813 526.975
26.4286 30.074 526.903
-34.6277 26.1168 526.84
112.357 -25.13 527.515
-18.5344 33.6529 526.784
30.6173 38.0138 526.818
-52.2303 19.983 526.854
32.7671 41.1008 526.793
19.2622 8.00695 527.067
-104.317 -12.2135 527.061
80.0344 -27.8894 527.466
62.1966 17.9951 527.026
43.7122 35.5871 526.839
18.0661 5.89138 527.064
16.5161 -43.3578 527.501
29.3969 -25.3065 527.357
-51.6305 25.9298 526.769
43.971 31.8375 526.856
-33.6048 39.9875 526.66
77.9073 -95.376 528.025
-32.1049 15.9281 526.868
-29.3062 -4.13541 527.05
-9.99677 -43.6281 527.428
34.0963 41.8319 526.732
66.1865 0.00363953 527.153
-34.4772 24.1102 526.787
-79.3603 -24.0087 527.148
-51.6647 28.015 526.716
-109.875 -14.0684 527.004
-64.5752 36.6755 526.617
-56.0235 41.9909 526.582
-119.456 -24.0051 527.073
116.603 53.7826 526.732
118.036 26.4914 526.974
-66.5991 33.919 526.631
-8.61556 -43.9029 527.411
-102.703 -15.7244 527.014
43.659 38.0636 526.753
-52.1643 39.9821 526.592
-73.9806 -28.0575 527.165
-113.457 -14.3436 526.981
42.1385 41.9217 526.707
-60.7661 -15.1739 527.061
-20.0007 36.1272 526.663
-51.527 32.1738 526.65
65.6182 9.9375 527.022
87.5949 -27.9637 527.38
112.582 -12.4192 527.277
-71.7523 23.7193 526.678
22.4533 22.0163 526.834
