ply
format ascii 1.0
comment Created by Open3D
element vertex 1971
property double x
property double y
property double z
end_header
130.101 50.8282 496.259
-44.5447 -17.7081 500.06
65.5859 21.1006 497.907
-28.9537 -44.1694 501.574
10.4783 -17.8942 500.097
117.519 87.951 494.12
94.2528 63.3197 495.51
12.618 -20.6836 500.254
25.9028 18.2703 498.038
-35.543 -4.68524 499.312
-34.2565 -6.23701 499.396
18.8253 -17.5698 500.067
-43.3889 -23.6024 500.376
55.0196 12.3495 498.379
-43.1744 -22.2003 500.293
-37.7997 -0.963008 499.079
-32.4593 -9.85971 499.586
97.992 63.367 495.482
-51.3886 -18.9296 500.089
-47.7251 -11.672 499.676
-2.46476 -17.6333 500.041
-3.758 -15.8183 499.937
-44.7564 -28.1223 500.608
56.5327 38.3737 496.863
60.6395 39.5687 496.797
-43.4049 -27.4978 500.561
-46.0998 -14.5211 499.816
35.7596 2.54929 498.883
32.6462 6.4197 498.66
-6.85979 -11.9308 499.684
-36.5638 -2.61675 499.136
-53.3155 -10.0314 499.549
27.4179 27.2617 497.463
-45.9346 -16.1498 499.896
-53.0634 -11.2396 499.61
27.4564 14.9228 498.162
-25.0809 -53.0424 502.007
95.2125 44.6849 496.501
-22.8035 -10.0314 499.551
24.8936 9.25574 498.477
20.3793 -19.1241 500.091
-37.8353 1.77459 498.866
34.9798 3.32372 498.813
65.6009 17.4964 498.021
105.133 74.2426 494.806
-51.9337 -10.0308 499.523
26.3763 9.31981 498.459
116.227 87.2592 494.065
28.9517 10.7372 498.379
30.3973 9.08351 498.466
52.8313 39.8199 496.723
72.7442 26.2342 497.509
-36.7123 2.20488 498.814
113.514 79.3159 494.5
24.8876 10.8014 498.357
83.5443 54.6403 495.888
-24.5891 -17.3711 499.933
33.1617 5.64541 498.648
-48.461 -24.6883 500.331
-18.875 -16.1487 499.86
27.6635 13.7887 498.177
12.0445 -29.5752 500.64
102.552 66.5105 495.208
26.4296 12.3465 498.251
107.538 44.6804 496.45
48.5334 7.60535 498.528
104.175 67.7976 495.124
-26.8804 -47.8108 501.643
72.3517 72.7086 494.825
63.3155 47.2331 496.272
104.115 72.711 494.841
92.094 46.7234 496.314
-47.2754 -26.1936 500.393
55.4426 -7.78805 499.4
-45.8081 -26.2799 500.395
-23.165 -17.6292 499.911
135.747 48.2575 496.24
-47.3528 -24.7211 500.299
-30.4909 -41.0263 501.236
100.867 65.3359 495.242
21.8036 -20.8071 500.104
45.6997 9.42633 498.393
18.2315 -14.7781 499.753
118.239 88.4273 493.923
-0.905356 38.5321 496.696
-49.1729 -11.0645 499.496
-0.391131 39.0439 496.665
29.1975 32.129 497.073
63.5159 42.4575 496.5
11.3041 -19.0805 499.977
27.4363 -21.909 500.144
27.7209 10.7995 498.279
5.79171 19.5488 497.767
27.6572 30.8461 497.131
23.6816 -21.7787 500.128
-6.51842 -2.61598 499.015
-21.6751 -17.6921 499.865
26.5187 30.2591 497.155
114.582 85.9908 494.026
-4.52602 -3.13281 499.041
-35.0139 -5.20033 499.138
75.4281 54.3012 495.806
-10.7278 -5.20042 499.147
58.5193 -5.20081 499.185
-35.6563 -36.3322 500.905
63.6665 67.9952 495.007
-43.3874 -26.9687 500.359
-50.2914 -20.634 499.99
90.526 47.737 496.169
27.5076 -4.16661 499.09
6.33894 -25.4111 500.287
14.2817 -26.2772 500.34
28.0473 -11.4094 499.5
14.5516 19.0329 497.754
106.056 37.7637 496.735
-20.3978 -16.2436 499.743
71.1794 26.227 497.372
9.78259 -17.2806 499.812
-27.6486 -46.2337 501.442
65.5488 21.6038 497.625
69.4637 25.8838 497.377
8.40137 -16.0706 499.734
31.7687 7.70606 498.39
-7.88304 -2.87405 498.971
66.5557 24.4286 497.45
60.4414 -3.77872 499.053
-44.239 -20.6619 499.95
19.0125 -18.9219 499.886
23.09 4.86952 498.526
8.10813 20.5733 497.619
26.4261 10.7976 498.185
0.12301 39.0355 496.559
77.3454 55.8956 495.64
-53.2405 -12.9604 499.493
54.8029 9.25219 498.285
23.5405 28.7888 497.153
-9.43199 -2.87385 498.936
26.1139 28.7887 497.148
129 50.2858 495.977
0.123647 -6.23366 499.128
69.2802 69.6372 494.84
108.9 76.4952 494.467
109.543 45.6874 496.224
-25.1967 -52.104 501.725
7.19316 -15.7236 499.665
-25.322 -50.666 501.634
-44.5601 -26.3702 500.234
50.2393 6.22344 498.428
75.0845 49.7705 495.958
96.6384 62.3886 495.248
14.2343 -24.7578 500.171
-53.6601 -14.5134 499.549
56.0971 -5.54424 499.09
-32.4701 1.88448 498.617
86.3484 52.8321 495.778
-51.4445 -11.665 499.376
115.228 81.3084 494.164
59.1405 38.2155 496.59
-31.3648 1.51559 498.63
28.6104 12.2125 498.052
77.822 30.3262 497.046
-46.0162 -22.364 499.979
51.6456 6.30598 498.397
54.6487 -8.30225 499.232
-52.6326 -16.0669 499.613
-35.4922 1.88423 498.599
93.0893 46.1935 496.142
-4.53063 -14.5134 499.549
-5.38545 -2.95962 498.887
26.0004 -20.7346 499.915
114.861 82.8252 494.057
-34.0952 -37.3633 500.825
11.4564 19.5424 497.605
68.0325 -1.58228 498.839
-26.0467 -15.8597 499.599
12.4861 19.8506 497.581
-45.4505 -27.7404 500.262
37.2205 18.0004 497.699
-21.5916 -12.9589 499.431
-20.0428 -13.9945 499.487
19.7826 -17.8813 499.726
-10.7231 -4.16513 498.926
54.6019 39.7981 496.455
20.7514 9.76531 498.145
-52.0916 -12.6991 499.384
120.723 89.9071 493.626
-48.7912 -23.5848 499.998
-32.0268 -39.444 500.911
-37.7321 0.310993 498.639
105.135 68.6098 494.82
-44.3685 -19.1752 499.742
-51.0784 -16.5833 499.588
-52.5831 -8.8175 499.143
-44.3236 -25.0302 500.07
67.8222 24.6785 497.297
81.7891 55.9843 495.517
54.7996 7.70427 498.254
60.6103 -2.67978 498.849
-46.0244 -25.03 500.064
116.156 48.7424 495.946
99.2929 41.5877 496.343
12.8039 -22.2877 499.934
95.4669 62.3341 495.154
67.7351 68.6041 494.78
111.77 78.1511 494.255
62.3041 40.0508 496.4
64.6645 68.0948 494.8
27.5491 -20.7315 499.841
-20.0485 -17.6194 499.634
-33.9371 2.03135 498.504
78.3493 27.2434 497.127
27.7024 12.3389 497.948
-46.0113 -20.8154 499.792
65.2472 24.1632 497.289
50.6844 5.12628 498.365
-52.9315 -10.1962 499.179
27.1906 -5.6117 498.961
84.7747 54.2638 495.577
18.2166 -12.4396 499.343
58.8973 -4.06153 498.884
-26.3617 -53.5248 501.656
-50.226 -19.173 499.683
53.1825 7.70355 498.207
63.2597 49.2447 495.835
26.9735 -2.61475 498.769
63.3181 41.0697 496.292
-21.3316 -14.2505 499.397
104.625 67.0742 494.829
-2.97905 -16.5813 499.53
-51.5498 -10.3677 499.145
-5.56268 -13.4736 499.346
26.9856 -7.00674 498.992
-21.2062 -16.1921 499.488
-51.0304 -10.1088 499.118
66.0423 20.0518 497.462
94.6119 45.1575 496.046
-35.1952 -4.06061 498.777
78.3513 25.7 497.139
-45.8237 -19.1708 499.627
62.0816 -2.61478 498.743
110.126 76.9696 494.226
-50.0364 -17.3564 499.512
28.0559 -19.1719 499.654
-6.07842 -12.4372 499.247
20.0058 50.8937 495.647
59.3491 -2.54089 498.714
72.8819 73.7504 494.369
-1.42788 -18.9115 499.609
-44.3711 -22.2159 499.77
-47.4826 -23.6887 499.849
-27.275 -15.0248 499.359
40.128 -1.32355 498.614
-36.7796 -1.06542 498.557
-25.9549 -5.71351 498.826
-45.8654 -23.7714 499.843
-45.8115 -17.7005 499.494
99.013 63.503 494.944
30.0216 10.2768 497.94
80.0251 57.2232 495.289
17.6905 -10.1082 499.084
-26.3413 -48.8127 501.266
12.5493 -27.9902 500.097
-46.9323 -18.1315 499.497
-25.2069 -15.5416 499.354
75.7754 24.5411 497.123
28.0795 25.8652 497.017
13.707 -23.706 499.834
58.9631 36.9671 496.395
21.5007 -19.3414 499.578
-1.9322 37.9872 496.296
60.5798 38.3307 496.308
16.799 49.2267 495.654
-33.4078 -52.0439 501.4
74.3088 75.0064 494.214
74.2151 25.7791 497.013
-29.8031 0.225183 498.411
-49.5201 -19.4252 499.52
-20.5459 -12.6932 499.149
55.796 9.24588 497.94
23.2645 29.7939 496.75
55.9336 7.82944 498.017
-47.2424 -19.1657 499.497
-31.4944 -39.9449 500.69
47.0378 8.08689 497.994
28.0443 -17.6127 499.448
18.4216 49.9045 495.589
112.886 78.7233 493.994
55.2375 15.6772 497.552
114.306 48.463 495.715
9.59383 21.6874 497.183
-25.0507 -7.39158 498.817
126.864 49.4834 495.655
114.657 79.8181 493.911
68.2077 69.0765 494.494
36.4926 1.77262 498.314
-30.7019 0.612058 498.342
63.5071 46.6713 495.764
33.6417 5.12369 498.113
66.4438 -2.09745 498.54
37.2685 0.998811 498.342
-36.8732 0.483003 498.329
26.4567 27.5352 496.819
77.7545 31.5851 496.615
57.6796 -3.90458 498.627
-29.4673 -54.8038 501.479
-44.4295 -23.7647 499.701
30.6558 22.9524 497.075
55.2532 12.3326 497.694
24.6039 -21.0652 499.578
69.6257 27.1637 496.848
132.471 51.0941 495.516
-5.52906 35.4207 496.328
-47.2788 -20.8902 499.516
-28.8128 -13.9845 499.132
-31.8903 -55.237 501.482
120.139 89.3412 493.323
77.4624 25.5181 496.938
-49.347 -20.89 499.512
16.0271 48.7061 495.577
131.436 51.5176 495.481
23.3959 -21.0642 499.555
89.9159 48.1989 495.637
122.134 47.0523 495.72
23.5749 27.3278 496.789
26.8993 16.702 497.396
62.3212 67.7972 494.497
-47.3541 -22.479 499.584
53.2226 6.66886 497.976
75.7358 55.8439 495.182
16.1261 -5.45328 498.641
-26.2337 -16.0542 499.218
105.888 42.5811 495.944
74.3493 52.913 495.335
1.6725 -7.5194 498.74
78.4113 57.3703 495.081
-27.9022 -53.4913 501.341
-49.4978 -17.8658 499.295
-9.61823 -4.22627 498.538
-50.4069 -11.2236 498.914
139.908 50.2384 495.51
-53.0861 -13.1201 499.012
-21.5735 -12.948 499.014
12.7982 -24.8643 499.71
16.8165 -7.26091 498.706
24.8766 28.6135 496.664
-51.5641 -18.1238 499.283
-25.8156 -50.3559 501.134
12.4677 -26.4947 499.791
125.175 48.5769 495.569
-27.7386 -2.61282 498.4
51.9979 37.9746 496.13
63.5946 67.5346 494.449
82.8206 55.4978 495.142
52.7901 -8.29445 498.762
117.508 48.0908 495.582
33.5752 20.295 497.119
63.5297 48.2919 495.539
55.2769 6.66793 497.907
133.832 49.7236 495.491
-22.0853 -11.6539 498.903
55.2305 13.8725 497.49
5.5485 -14.4994 499.075
106.878 44.3627 495.773
28.2763 13.8719 497.465
11.7041 18.4969 497.191
-19.5098 -15.0165 499.082
31.7679 21.3208 497.033
-52.7512 -15.8783 499.104
105.01 71.0863 494.23
51.6743 5.12216 497.962
-34.2826 -5.53798 498.521
75.465 75.3102 493.969
-1.94084 -5.19385 498.516
71.0842 27.2202 496.708
11.4496 15.927 497.31
118.298 46.9977 495.597
59.3125 37.715 496.093
120.698 46.5723 495.62
-48.7376 -22.2662 499.449
110.327 46.8602 495.593
104.715 73.8728 494.044
-0.908672 -5.96805 498.535
67.1882 -1.58064 498.322
56.3704 -4.16123 498.46
124.009 47.9315 495.526
65.2876 25.7536 496.757
63.41 -2.44097 498.361
27.8741 31.3157 496.416
-6.51982 -4.09621 498.416
106.046 44.2042 495.723
57.1264 37.7128 496.064
63.842 41.0349 495.873
15.2202 18.1521 497.15
63.6156 45.6308 495.609
49.0831 6.66679 497.822
-30.9094 -55.0429 501.292
-35.2521 0.482687 498.123
57.8988 -1.58055 498.292
64.9391 22.8586 496.902
66.6892 25.6792 496.742
9.63905 23.1131 496.856
-51.0358 -18.1197 499.171
-33.425 -7.25884 498.561
-52.8741 -14.4964 498.963
105.021 69.047 494.283
-28.4171 -54.7807 501.268
77.239 56.8437 494.958
11.1178 -27.7115 499.742
53.2104 39.2953 495.943
68.1492 25.6053 496.732
-45.8548 -15.7899 499.028
-29.2775 -53.6483 501.192
75.698 57.097 494.933
-51.9235 -11.3923 498.765
-21.0609 -17.084 499.107
98.6902 62.9482 494.61
127.985 50.0519 495.359
65.9934 19.0077 497.094
77.7432 28.7534 496.543
-53.5769 -11.6509 498.773
-35.1184 -1.06452 498.179
74.3122 54.1678 495.09
68.5033 26.9593 496.636
134.757 48.692 495.433
100.463 64.4718 494.514
65.1213 -2.22554 498.295
62.2446 39.2426 495.927
-29.1694 -0.858074 498.163
-9.68107 -5.7091 498.447
-36.3812 -36.2792 500.174
30.7739 9.4971 497.601
61.2172 39.2421 495.921
69.7767 28.2398 496.551
-33.8433 0.547136 498.071
-50.3401 -17.7728 499.104
-20.196 -15.8755 499.013
71.223 71.068 494.103
72.4417 27.0436 496.613
-7.79252 -10.0138 498.678
27.5777 15.4101 497.248
24.8714 27.3594 496.564
104.459 72.3378 494.042
-27.2169 -3.64398 498.296
55.8013 2.54471 497.988
75.7119 25.1634 496.705
107.491 75.1251 493.873
-32.5054 -38.8775 500.295
26.4386 -5.45105 498.418
35.1107 19.5185 496.998
104.51 67.6832 494.288
-21.5685 -14.4946 498.902
111.824 48.1759 495.403
76.9996 24.6499 496.72
55.7754 6.1506 497.756
54.1934 39.4936 495.853
25.3032 29.7723 496.39
100.255 36.939 496.018
-24.7152 -8.87152 498.56
-33.5348 -37.8345 500.199
63.0439 -1.58021 498.186
51.1476 4.09021 497.852
115.665 49.3632 495.306
54.762 -7.19355 498.497
2.18867 -8.80781 498.556
111.245 47.3223 495.414
0.122835 38.4668 495.854
60.6341 -1.40824 498.162
0.742859 -6.94731 498.441
-2.7136 -4.67583 498.309
81.0636 56.8309 494.847
-26.7001 -4.41746 498.279
-5.29286 -4.15964 498.273
-24.6723 -17.0803 498.998
-32.6171 -0.548575 498.047
70.0198 70.7171 494.035
38.0165 0.740321 498.003
60.787 37.786 495.902
-30.3374 -12.4239 498.712
13.0478 -23.5549 499.365
53.698 7.69418 497.606
-50.5067 -18.6319 499.048
32.061 7.69392 497.589
-23.1061 -11.3898 498.646
73.0368 72.4729 493.917
74.5361 55.6812 494.874
119.111 46.4685 495.424
29.2116 12.3233 497.316
5.26702 19.6854 496.882
-32.6956 0.826219 497.934
65.9048 28.2327 496.426
6.8099 20.5407 496.831
-23.4464 -10.1837 498.565
-8.1937 -4.15921 498.229
-26.1952 -52.1533 500.954
-48.8293 -11.5612 498.626
11.6487 17.0497 497.026
-9.37032 -7.15332 498.394
-3.4916 -15.5267 498.874
108.686 45.7855 495.437
-51.7797 -16.0429 498.87
-46.0199 -17.4232 498.951
-20.3251 -14.5949 498.803
-44.8329 -20.9611 499.152
15.5978 -4.67531 498.255
61.7442 -1.57995 498.103
-35.5604 -2.61138 498.107
59.5924 -1.23612 498.074
114.703 49.4393 495.214
64.3945 23.362 496.669
64.1243 42.4209 495.575
58.0534 -2.69745 498.143
96.5603 43.9114 495.505
74.2421 74.0871 493.771
85.6893 53.7666 494.934
-27.8792 -52.4095 500.925
55.1914 -5.5785 498.298
54.8344 16.9466 497.012
12.6157 18.5594 496.895
24.7535 -20.3569 499.12
108.725 75.8618 493.677
-44.3217 -22.7725 499.214
52.163 4.60425 497.706
-46.3462 -14.7482 498.754
-37.1459 -36.7852 500.015
-19.4998 -15.7834 498.825
66.9339 26.9485 496.436
-5.24543 -12.8358 498.663
-46.0245 -19.1465 499
44.7531 9.23643 497.43
107.383 45.4647 495.398
38.5398 16.7746 496.995
53.1823 6.27747 497.601
-24.5996 -16.1064 498.831
71.0335 28.2286 496.353
65.906 26.6915 496.435
-47.6589 -19.146 498.984
8.45358 21.2556 496.711
12.0083 -21.2187 499.133
63.7553 39.481 495.699
-31.8707 -10.096 498.468
91.0443 47.3079 495.263
13.9375 18.4847 496.86
77.804 75.0937 493.667
-45.6847 -20.5264 499.05
105.924 74.4202 493.719
55.7003 14.8906 497.086
51.7205 -8.2885 498.405
103.125 66.1351 494.19
11.3261 -26.7464 499.431
35.6127 18.9978 496.833
18.317 -11.5168 498.562
55.0984 -4.05563 498.156
65.1826 67.6874 494.069
18.1855 -10.3542 498.491
22.339 -20.1819 499.049
69.8149 69.441 493.964
20.2029 9.7495 497.338
-30.4601 -0.720266 497.906
-32.8921 -7.771 498.307
54.6186 6.35406 497.545
68.2087 67.9259 494.036
45.4365 8.72077 497.396
-8.1316 -8.90706 498.37
-6.51176 -11.2391 498.5
-4.15415 36.4081 495.778
66.6076 67.987 494.016
26.9383 -4.41623 498.117
38.7843 -1.06393 497.932
-33.8992 -2.09494 497.945
121.03 89.7556 492.794
6.73297 -16.143 498.768
28.8785 32.3173 496.014
29.9353 23.6113 496.507
15.812 16.942 496.878
99.1227 42.0293 495.492
129.596 51.0393 494.985
-28.2259 -1.57929 497.895
-24.6542 -14.4868 498.632
-4.14877 -4.15769 498.053
-47.4849 -20.6089 498.965
53.1049 38.0043 495.678
113.269 48.5319 495.108
-29.6539 -43.0168 500.246
20.4107 -17.5169 498.819
-48.7825 -17.5154 498.777
110.328 47.8938 495.136
8.38592 -17.5902 498.813
3.97983 18.9932 496.714
30.2349 10.5193 497.212
-21.869 -15.9339 498.684
-47.5326 -21.9885 499.015
12.7312 12.061 497.106
13.5613 -25.3577 499.237
-2.19993 -17.3307 498.77
-24.5366 -10.0415 498.341
-22.9277 -13.0208 498.508
-29.2559 -2.09467 497.88
-33.6308 -0.548289 497.787
99.8885 63.4086 494.206
-51.8583 -14.4846 498.56
21.9861 -19.0554 498.86
24.5183 29.2417 496.105
13.7643 9.23272 497.237
128.729 50.6926 494.936
56.3853 -2.75775 497.941
18.8524 -14.4117 498.584
78.9585 57.8145 494.496
-48.7694 -20.606 498.894
71.0797 69.5955 493.817
-30.5228 -11.2803 498.367
9.42801 -27.4291 499.31
55.9144 10.6724 497.161
25.3728 -0.0329578 497.754
47.1047 7.43273 497.339
-51.7874 -12.9334 498.445
73.5882 26.6818 496.255
105.434 38.0639 495.621
104.924 69.4945 493.827
10.2025 -26.91 499.27
55.7858 -1.57914 497.848
96.9147 61.7098 494.26
114.51 79.1195 493.276
55.0202 -2.86798 497.916
72.7002 70.9482 493.715
27.3454 -19.14 498.823
53.3734 -7.64018 498.181
64.3546 24.3751 496.361
-23.1049 -16.035 498.615
4.25137 -12.4167 498.423
-27.6412 -14.1733 498.502
-48.6715 -19.1379 498.773
29.7123 11.2883 497.081
-8.3833 -5.18846 497.999
104.123 66.5743 493.969
-50.9584 -12.9325 498.414
19.0934 -15.9059 498.619
27.4969 -20.6921 498.897
9.58909 -17.9315 498.728
54.5676 37.9954 495.562
-26.1963 -14.4833 498.508
1.66184 37.4181 495.563
-50.3944 -15.9692 498.576
77.3136 57.6045 494.452
54.7495 -1.32132 497.799
107.154 74.5571 493.498
28.5123 -15.5178 498.589
-5.54743 -5.18824 497.978
11.9559 12.8288 496.956
62.3771 66.4408 493.927
-29.2868 -12.9324 498.401
49.9705 5.01364 497.421
55.6915 12.3156 497.007
-25.915 -6.99373 498.061
17.6592 -9.05888 498.202
26.0869 18.476 496.634
10.9674 -19.6553 498.797
77.6609 29.75 496.017
9.94347 -27.4251 499.238
24.5208 26.6764 496.155
-24.573 -11.4463 498.295
-26.3062 -51.857 500.597
34.1092 4.60151 497.41
27.457 -9.05816 498.172
25.7921 30.5135 495.91
-47.4294 -17.5186 498.607
27.3443 26.675 496.128
-45.5813 -21.9816 498.861
-35.6773 0.482169 497.581
-27.8642 -53.4181 500.657
-38.1595 -37.2817 499.731
-32.3632 -8.79922 498.107
-3.85734 -14.4076 498.441
-47.4862 -13.0039 498.334
18.6105 -12.9313 498.364
59.196 36.2469 495.581
63.9902 44.1517 495.133
93.6534 45.8355 495.051
27.9891 -14.7397 498.464
27.8031 -10.3484 498.212
116.419 86.9354 492.713
7.31758 21.0371 496.407
33.0699 6.14458 497.268
65.241 18.303 496.589
99.6018 40.733 495.324
-32.1557 0.310413 497.555
27.9821 -12.9305 498.34
-23.1806 -14.3939 498.394
47.9925 7.17321 497.202
40.0601 15.7364 496.707
-29.3706 -1.32092 497.64
95.4552 44.5583 495.094
75.6332 25.1373 496.19
51.6838 -7.76702 498.051
105.641 39.3282 495.391
55.6699 13.8542 496.815
-0.90893 -19.1335 498.657
-35.5931 -1.06323 497.604
74.082 56.0127 494.407
-46.8254 -14.4789 498.359
80.4652 57.589 494.319
-26.8079 -48.1997 500.289
-29.933 -53.4103 500.584
-34.4038 -4.41328 497.788
-27.8551 -51.8465 500.496
53.1493 5.11528 497.292
106.035 45.2359 495.031
66.8922 25.6476 496.126
16.618 -6.21845 497.91
101.508 64.8309 493.906
95.4324 61.5183 494.091
-1.42493 -18.0981 498.575
62.1163 37.8558 495.415
11.6943 13.5953 496.768
73.8352 54.4839 494.469
100.135 37.9203 495.424
115.465 80.6054 492.994
-47.8398 -11.8948 498.177
-2.80049 -16.0292 498.437
125.619 49.1412 494.792
98.2834 42.7683 495.139
3.2174 -10.3463 498.113
65.3898 19.9069 496.418
56.4132 9.12575 497.021
57.6345 36.4491 495.463
-35.0452 -36.7536 499.585
123.072 47.6103 494.852
56.5397 36.8947 495.423
20.0912 51.169 494.588
-50.6879 -14.4769 498.292
-34.3821 -0.0329392 497.474
63.3567 66.4879 493.734
-2.44179 37.4024 495.355
63.1141 49.6435 494.693
20.173 -16.1761 498.421
105.731 40.9801 495.208
119.175 88.4288 492.508
53.1187 36.8937 495.409
26.5519 31.2713 495.714
23.7438 25.8989 496.019
11.2298 -26.1192 498.977
9.93042 -19.1303 498.577
92.1555 63.879 493.889
54.6856 5.11452 497.218
59.0146 -0.719778 497.55
23.3536 -20.5102 498.652
10.9727 -27.414 499.036
14.0226 3.57062 497.269
3.73307 -11.3777 498.115
55.8465 37.7431 495.34
56.0167 -2.09353 497.61
-26.2528 -13.0738 498.182
63.7702 37.9764 495.316
16.83 15.646 496.562
56.5186 7.5826 497.042
-4.3893 -13.0554 498.183
-7.60482 -4.15461 497.669
105.264 67.9324 493.62
-9.15145 -5.18559 497.724
-31.0295 0.224536 497.395
26.1861 -19.1287 498.521
27.9816 -15.7679 498.33
8.38793 -26.6338 498.937
-26.0605 -8.58907 497.884
-7.60664 -6.73226 497.788
51.6635 3.50609 497.236
56.3156 6.45092 497.068
88.1906 50.1456 494.594
-24.6937 -12.925 498.126
8.64677 -27.4104 498.97
66.8597 27.2485 495.885
68.0899 66.6063 493.639
66.6831 66.7836 493.627
26.1757 26.7901 495.883
69.5376 68.0689 493.551
-29.3945 -11.7629 498.046
26.9556 -18.0931 498.436
48.4926 6.39916 497.051
-27.809 -13.0968 498.119
77.0536 25.7247 495.963
68.1915 27.3793 495.863
27.7282 -17.7053 498.41
120.415 89.168 492.367
-6.68128 -10.1369 497.958
-47.0239 -16.1271 498.276
93.4229 63.105 493.833
74.3 57.2628 494.155
-29.4266 -8.7948 497.86
71.0374 68.1237 493.524
99.6394 33.5671 495.51
76.9542 75.0126 493.134
107.843 75.0149 493.149
11.2201 -20.6774 498.548
57.467 -2.43655 497.531
56.2162 5.11338 497.099
112.398 78.0499 492.971
54.5135 -2.40217 497.525
35.466 3.39833 497.183
75.8182 58.7847 494.047
54.7104 -0.98941 497.442
-6.57684 -8.7948 497.853
75.9036 57.3328 494.128
11.4816 -23.5234 498.7
-27.3111 -47.1385 500.021
-27.7569 -4.21821 497.573
102.721 65.2578 493.682
69.9181 28.963 495.732
72.4985 68.0863 493.5
12.5179 -26.3711 498.852
17.6 14.3599 496.53
117.879 87.4778 492.416
98.2864 61.8315 493.867
73.6696 70.4503 493.36
115.41 81.3322 492.76
59.2442 34.9129 495.37
29.1318 24.355 495.953
65.2451 27.235 495.808
45.8209 7.68369 496.91
72.4493 69.5362 493.397
-48.9486 -16.1694 498.214
114.839 85.6228 492.5
53.1325 3.56975 497.135
57.7949 -0.998476 497.397
-29.2568 -10.5996 497.894
24.7618 25.8897 495.842
-35.0652 -2.43604 497.422
-0.902547 38.0683 495.123
76.1769 75.0013 493.059
104.698 38.1578 495.174
23.5522 30.0662 495.589
113.399 78.2918 492.887
77.2773 58.8401 493.974
24.8893 -19.1235 498.389
-30.6507 -41.1523 499.614
54.6933 0.481874 497.288
64.7027 66.4893 493.529
-28.0793 -45.8315 499.877
82.2225 56.2354 494.116
54.6727 3.56949 497.099
-31.3135 -9.82475 497.814
60.981 -0.753787 497.346
64.6866 40.9601 494.97
-25.902 -9.82467 497.81
81.6173 56.9115 494.064
113.264 49.1147 494.525
-31.2136 -54.4207 500.345
60.6169 36.3666 495.213
56.308 -0.998411 497.341
-29.2266 -2.67183 497.382
7.3447 -17.5701 498.247
-33.3609 -6.72979 497.606
27.7456 31.9128 495.433
-5.54602 -10.8563 497.851
77.4112 27.0642 495.733
-33.9274 -1.20966 497.28
11.997 -25.0706 498.664
-26.3565 -7.45148 497.635
-28.0672 -2.736 497.365
28.9055 13.3304 496.478
4.76321 -13.437 497.989
69.2161 66.2514 493.47
-28.8471 -44.5241 499.727
-26.4534 -5.80149 497.518
11.9924 -22.2228 498.475
64.1195 47.069 494.548
64.6863 39.679 494.968
8.54888 -18.947 498.279
59.316 0.481652 497.198
72.6181 71.4422 493.156
16.0881 -4.66789 497.464
-5.00369 35.0828 495.185
77.3858 60.2152 493.793
-5.37417 -11.7152 497.848
-6.06006 -9.82328 497.74
84.3454 55.3771 494.065
101.13 63.5018 493.607
124.76 49.1058 494.436
19.7149 -14.7267 498.017
85.549 54.1902 494.123
-7.08618 -4.66755 497.428
13.991 17.9443 496.149
40.2752 -1.06246 497.247
11.2176 -22.2209 498.436
24.8255 0.99635 497.114
-32.2309 -1.20922 497.202
64.1243 45.5365 494.585
-35.5364 -36.7267 499.22
23.2704 -19.1826 498.252
37.6886 1.51087 497.078
68.3528 28.6954 495.544
74.4608 73.9662 492.963
38.4634 0.739079 497.116
-3.48128 -4.66729 497.4
109.674 47.3202 494.498
24.6394 30.0228 495.435
78.7876 58.6945 493.826
-33.4776 -5.56878 497.426
68.0632 65.184 493.446
63.5478 36.4849 495.08
104.763 72.1947 493.065
54.6658 2.0253 497.038
-26.2786 -9.04819 497.623
72.9831 57.2332 493.898
-32.1808 -52.2175 500.079
-25.6413 -11.3694 497.752
36.6552 2.02529 497.021
12.3023 -23.7709 498.478
62.1483 -1.06251 497.209
72.9764 27.4156 495.59
110.658 76.6622 492.798
114.824 83.0622 492.433
52.3983 36.3552 495.06
128.048 50.6256 494.282
-29.2547 -52.4489 500.066
31.4838 8.70702 496.611
-25.1224 -10.5949 497.68
55.0856 36.6093 495.032
60.0949 34.823 495.135
106.863 46.0421 494.516
84.8454 54.8581 493.999
19.0538 49.8543 494.242
-32.7439 -51.2753 499.978
66.6039 -1.06264 497.17
73.1152 55.8303 493.927
-30.9267 -1.23362 497.122
-8.04204 -5.84415 497.396
-48.489 -13.0879 497.783
9.80129 -26.4856 498.577
56.2121 0.48153 497.062
86.3102 52.9078 494.089
-5.23191 -5.79979 497.385
-7.94609 -8.44576 497.533
96.3694 60.6117 493.65
63.7338 27.3023 495.53
-33.7057 -4.07773 497.262
28.3783 14.3517 496.245
129.811 51.6377 494.176
57.2013 6.39486 496.714
-26.4185 -50.6781 499.922
25.3899 -18.0805 498.09
26.9049 -7.75843 497.5
105.85 73.6507 492.902
47.4285 6.65158 496.686
56.2644 1.96054 496.957
63.8314 48.5807 494.299
-8.18081 -7.30708 497.446
-36.3033 -36.7183 499.106
15.9857 48.0687 494.298
105.317 66.8629 493.27
59.069 33.7973 495.129
64.8105 19.9895 495.918
63.748 24.8012 495.638
29.8876 23.0606 495.717
16.0739 -0.0329096 497.026
115.357 79.7649 492.53
71.3545 28.6877 495.412
-28.8579 -51.2686 499.913
-33.8441 -2.67057 497.139
21.7775 -17.8205 498.028
78.6887 74.1971 492.805
114.577 84.2543 492.25
58.0297 35.3264 495.007
12.9694 11.0151 496.367
62.0364 36.2615 494.948
74.1207 51.2887 494.097
66.7194 28.5399 495.388
56.183 3.56733 496.805
-25.8947 -12.3979 497.67
-6.56948 -5.69593 497.297
62.9343 65.3327 493.284
77.0143 61.2766 493.519
9.35935 22.8018 495.674
80.021 58.4006 493.682
50.3944 3.69576 496.777
19.1878 -13.172 497.716
62.1268 35.0688 494.988
105.08 42.9742 494.559
74.3093 58.5673 493.651
132.732 51.1187 494.102
83.4514 55.5625 493.819
-31.932 -8.65833 497.414
114.708 50.3539 494.128
-24.0909 -12.9128 497.657
134.424 49.0833 494.209
116.514 49.0822 494.198
-23.5797 -14.4608 497.741
57.7409 0.481402 496.933
103.783 65.3296 493.26
62.6709 30.216 495.238
77.3846 28.5131 495.343
123.684 48.573 494.225
71.2072 67.6066 493.108
27.3076 25.8698 495.462
-27.7519 -50.8047 499.803
63.7262 26.0623 495.469
108.866 75.15 492.695
26.5399 -2.77766 497.091
10.0925 -20.4867 498.091
130.921 52.0053 494.022
99.7316 62.0317 493.429
104.608 38.8933 494.75
26.2248 -4.07678 497.157
105.145 36.8531 494.865
40.6942 14.8604 496.079
111.752 48.8755 494.178
-27.8625 -11.5363 497.544
-24.6087 -14.46 497.711
-29.2318 -10.2594 497.468
-26.5172 -49.306 499.693
63.7022 28.6805 495.284
7.34681 -26.3466 498.39
-29.1399 -8.78602 497.367
63.8168 -1.06215 496.977
71.1875 69.2465 492.971
26.9214 -16.0087 497.805
108.661 46.9769 494.254
50.4076 -7.58429 497.331
-48.9153 -12.9106 497.576
51.722 2.19572 496.768
68.1329 30.042 495.188
139.752 50.6024 494.055
23.0601 -17.8155 497.888
11.3007 -25.3101 498.303
-28.9753 -11.3633 497.484
73.8355 72.4056 492.763
60.0733 33.7856 494.957
53.0921 2.02428 496.757
63.8438 31.9131 495.056
68.0171 66.0756 493.111
60.6704 0.407813 496.85
15.9805 47.5415 494.137
-30.822 -53.5416 499.875
65.3928 -0.99784 496.93
63.2788 33.1467 494.979
62.6794 27.3998 495.305
29.1592 32.9322 494.967
111.779 77.0402 492.496
75.4324 74.088 492.642
138.599 50.0896 494.045
64.7065 30.4652 495.122
62.5988 38.3748 494.668
39.2137 -0.0328974 496.841
-27.6029 -5.62968 497.119
57.4403 4.97919 496.559
66.6513 65.9861 493.078
75.7264 26.0474 495.359
17.6267 -8.26986 497.284
57.1659 7.41864 496.407
64.769 21.5162 495.6
-2.45019 -5.76719 497.117
17.5815 13.8314 496.01
74.4452 59.7322 493.423
5.25382 20.2346 495.635
67.2501 32.2499 494.98
30.9051 21.5146 495.572
-6.56926 -8.78469 497.277
49.2109 5.10742 496.513
75.72 59.7305 493.408
135.663 48.8129 494.064
-4.4871 35.308 494.75
110.088 48.5566 494.057
72.8289 69.2301 492.854
62.4555 28.7756 495.155
100.72 62.2664 493.265
8.22838 -25.3794 498.211
-32.2843 -2.60477 496.89
-30.6645 -10.124 497.319
69.782 67.3308 492.957
7.03477 -25.4089 498.209
104.506 65.8132 493.057
22.7385 4.59303 496.492
59.1869 2.02376 496.656
27.3271 16.3924 495.815
65.0507 28.5867 495.141
57.6982 3.50131 496.566
27.4321 -17.0365 497.72
72.913 58.7108 493.425
26.8103 17.4167 495.75
74.0056 50.3304 493.897
-29.2007 -4.14855 496.944
-5.02575 -11.3607 497.369
25.2584 21.5121 495.511
36.2164 18.0996 495.71
8.32981 21.8526 495.479
116.216 86.5286 491.85
63.917 66.0589 492.986
95.6213 60.7395 493.306
-30.6908 -7.30237 497.115
27.4092 -10.0723 497.305
94.5882 61.7532 493.245
54.3611 -5.79642 497.073
62.4631 31.5645 494.946
53.0874 0.481296 496.712
67.2363 32.7556 494.878
-32.2335 -7.17332 497.098
-6.56693 -7.23768 497.113
65.5305 66.1413 492.967
11.9274 16.391 495.772
-47.6533 -15.8726 497.577
19.0025 -11.5323 497.366
-4.1992 -5.89859 497.031
-27.6755 -10.3288 497.268
63.4611 30.2015 495.003
51.5871 -7.09111 497.12
62.2537 36.495 494.639
109.98 75.6706 492.431
53.3719 37.3442 494.584
62.2081 33.1615 494.82
63.0998 37.344 494.581
73.1966 54.39 493.614
57.7008 2.02356 496.588
53.3492 -0.932958 496.754
64.9461 18.6102 495.646
53.0255 -6.92882 497.095
105.005 44.2225 494.206
105.667 45.8337 494.11
-27.5093 -12.5619 497.365
97.6538 60.7331 493.254
19.9322 49.9397 493.823
105.058 39.638 494.456
122.097 47.5295 494.012
11.9298 13.8275 495.87
68.2591 31.9863 494.865
59.0609 3.22236 496.497
-30.7557 -8.78187 497.128
69.8134 29.6883 494.989
74.454 26.3676 495.18
27.7054 24.8839 495.234
6.79042 21.1667 495.431
126.707 50.1714 493.843
28.2943 32.7489 494.778
26.1635 25.9057 495.166
-32.2872 -5.69175 496.934
35.2663 18.6935 495.581
-50.1275 -13.0076 497.338
-26.2344 -11.6673 497.271
72.6483 67.7325 492.785
46.3594 6.64574 496.25
-47.5076 -14.451 497.401
100.186 39.3786 494.412
-26.2002 -10.474 497.184
9.92042 -25.8145 498.077
-29.2632 -5.69149 496.908
18.0147 49.0436 493.809
105.197 69.0823 492.711
25.8442 -5.43411 496.911
62.0842 34.5838 494.648
13.0229 17.0457 495.618
8.88712 -24.2622 497.967
10.4305 -21.6781 497.817
70.8284 29.6842 494.92
27.4061 -11.6155 497.249
119.267 47.1573 493.944
54.3003 -4.14784 496.831
77.0882 74.3855 492.362
53.4673 36.3156 494.519
24.6432 24.4879 495.176
32.3713 19.9065 495.442
66.7243 30.0661 494.881
95.7699 44.4664 494.073
-31.0079 -52.5745 499.535
-27.6629 -8.78018 497.038
136.621 49.0455 493.829
60.2595 1.50909 496.491
-34.2059 -37.4598 498.659
33.6321 19.6285 495.44
17.1186 48.6568 493.775
-29.2004 -7.2353 496.936
128.402 51.2452 493.678
56.4702 10.8771 495.939
-27.2733 -49.3994 499.328
113.158 49.9132 493.743
115.812 49.7191 493.749
-5.27855 -7.23493 496.927
25.8275 -1.06106 496.59
-30.7257 -2.60356 496.643
73.6984 52.5947 493.552
14.2818 16.9994 495.548
73.9658 71.0073 492.5
52.036 0.738124 496.493
-32.2732 -4.14678 496.723
107.236 47.0052 493.879
-1.41999 -6.2052 496.85
58.4891 34.5263 494.559
3.71266 19.711 495.373
64.5421 46.7483 493.864
102.783 64.4623 492.875
-27.5814 -7.38149 496.899
104.151 37.7142 494.401
72.6228 28.1476 494.928
55.7096 15.3607 495.644
-4.13912 -7.16088 496.89
54.7912 36.106 494.454
99.6543 61.2179 493.046
63.6975 36.2081 494.451
28.0002 15.3598 495.618
90.347 48.0191 493.788
15.1277 16.7678 495.526
0.508912 -7.62053 496.906
34.026 5.10398 496.197
-0.905536 -7.2342 496.881
62.639 26.6135 494.986
93.9493 45.7303 493.913
-49.8111 -14.4471 497.263
56.5987 9.72208 495.94
76.9424 60.4535 493.057
24.7271 23.2901 495.143
37.0548 17.4073 495.484
53.5917 -2.60338 496.62
91.1131 47.5074 493.783
96.9333 60.368 493.052
117.431 48.2709 493.75
23.815 -18.5743 497.507
75.6951 27.3782 494.915
-26.7506 -49.1302 499.22
69.7944 66.3757 492.686
-31.3698 -40.3032 498.71
137.602 49.5418 493.68
-4.30125 -8.88127 496.93
73.9711 59.0123 493.099
4.2461 -24.2543 497.805
56.251 36.1352 494.388
73.7969 69.3084 492.505
114.723 78.533 492
125.075 49.5394 493.656
92.1385 46.6571 493.8
101.491 62.8976 492.876
-2.45093 -15.7352 497.299
27.5396 -16.1225 497.336
120.504 47.2508 493.774
100.016 40.9624 494.114
66.7248 0.37835 496.409
140.634 51.0626 493.56
-48.7737 -14.4445 497.184
18.7477 -10.4257 496.989
-5.22736 -10.2197 496.964
61.9392 33.3713 494.513
100.431 36.3037 494.358
29.6292 12.2829 495.687
-0.773081 37.4459 494.234
27.5322 -14.3165 497.199
8.83547 22.7743 495.073
-48.5199 -15.4751 497.217
0.378268 37.5725 494.218
1.92353 -8.77717 496.859
108.14 74.3575 492.176
63.5892 34.7717 494.406
23.237 3.56268 496.162
104.243 64.6844 492.721
66.9153 1.5085 496.298
2.69518 -9.80681 496.905
12.7791 12.6234 495.631
47.2359 6.25748 496.013
19.8069 -13.0269 497.093
122.435 48.1768 493.659
25.3133 -4.14565 496.587
114.559 51.0552 493.488
65.6395 -0.0328658 496.364
118.181 47.4974 493.679
52.3092 37.3167 494.219
-37.802 -37.4425 498.43
66.6027 33.3033 494.453
65.2022 40.7542 494.025
94.9497 44.9529 493.798
12.9469 13.9883 495.518
31.1745 9.4626 495.783
56.3073 12.2816 495.635
-2.27665 -7.06041 496.705
71.0006 66.2569 492.561
9.56548 -20.9774 497.497
65.4154 29.157 494.668
100.398 37.8264 494.193
64.183 22.5165 495.037
98.1952 60.383 492.896
101.419 37.8256 494.184
110.479 49.5258 493.521
51.4938 1.50827 496.221
65.1029 36.2951 494.242
-5.27689 -8.77566 496.772
64.6516 45.3296 493.725
124.273 49.5255 493.517
64.7482 42.5058 493.877
57.64 4.07552 496.064
63.8674 30.1757 494.579
63.8949 33.3377 494.395
24.7688 -17.4716 497.267
-30.7207 -5.68765 496.564
65.0886 37.8217 494.133
105.423 72.4891 492.176
105.65 67.7702 492.444
20.4523 -15.4728 497.143
-4.33516 -11.5215 496.902
64.1967 19.9583 495.143
26.3126 -17.4711 497.255
-30.7145 -4.14446 496.461
20.2777 -14.4414 497.072
-0.391187 -8.77475 496.735
8.01801 -19.4265 497.347
17.6055 -7.74573 496.686
56.2379 13.714 495.476
60.7584 34.7626 494.278
105.665 66.105 492.515
133.442 50.537 493.417
68.2039 31.4997 494.465
60.5773 33.1696 494.365
16.5722 -5.43039 496.538
59.2846 33.1308 494.361
14.325 6.46934 495.856
62.5879 64.6007 492.567
96.991 43.6732 493.779
65.2185 39.2734 494.01
11.9705 -23.7275 497.565
69.5329 64.7256 492.549
59.7007 2.02156 496.119
52.9835 -5.51598 496.541
68.5488 30.5116 494.492
14.288 7.56292 495.766
68.4479 64.7239 492.536
61.8838 31.7862 494.41
61.8096 30.1708 494.5
76.9093 30.4261 494.486
99.3044 41.8896 493.845
112.901 77.3599 491.829
-3.64963 -13.0651 496.919
82.2907 56.6177 492.991
-2.94702 35.2658 494.158
57.8268 5.20357 495.905
89.5145 49.0054 493.424
133.954 49.5156 493.419
26.7548 25.5751 494.724
66.9343 29.1494 494.54
74.8924 26.5976 494.689
66.3809 0.994404 496.143
108.596 48.1589 493.475
8.88023 -25.0161 497.581
111.215 49.5123 493.386
57.8676 6.38319 495.815
70.991 64.7184 492.495
72.4644 59.2491 492.805
113.492 51.035 493.293
13.0435 15.1443 495.282
63.4993 31.6129 494.371
66.6315 34.7567 494.193
21.7378 -17.0159 497.117
26.4705 -16.1911 497.072
104.901 43.4122 493.717
0.633831 36.7914 494.036
72.6076 61.7428 492.652
53.2252 -4.31535 496.399
30.3892 10.74 495.528
107.078 73.7332 491.977
64.6419 43.9173 493.651
-31.8641 -39.7595 498.366
69.7328 30.4218 494.418
72.1917 57.7506 492.859
76.8379 37.3022 494.027
-2.8351 -14.5661 496.939
104.742 45.5705 493.567
72.4877 60.4101 492.703
-4.13747 -10.3904 496.696
-29.5829 -51.9549 499.049
69.5506 63.3626 492.524
105.772 46.764 493.49
98.5127 42.6456 493.72
62.5958 26.0831 494.644
75.3378 72.1272 492.024
66.66 30.2673 494.404
108.905 49.5068 493.331
5.75834 20.9732 494.899
127.27 51.0306 493.25
100.391 34.7545 494.162
104.903 42.3909 493.728
18.3289 12.2759 495.396
104.12 39.4392 493.891
63.8422 65.0132 492.41
-2.70418 -8.51478 496.565
75.4251 64.6377 492.435
26.8742 -14.6947 496.931
57.0612 10.7391 495.498
73.3323 27.8688 494.529
62.5286 -0.546478 496.143
71.0055 61.7355 492.594
59.1607 3.66342 495.898
36.919 2.36309 495.958
120.609 88.6809 491.08
40.7002 -1.06013 496.152
0.12317 -20.1072 497.205
66.5809 31.6292 494.29
57.2743 9.09917 495.567
-33.4014 -38.1998 498.21
85.3517 54.5755 492.984
74.0152 60.487 492.638
71.09 63.1864 492.475
101.089 61.6697 492.578
102.884 39.3338 493.851
-29.0377 -44.4189 498.553
65.1056 31.6916 494.262
104.28 36.6186 494.002
37.5379 16.8809 495.09
75.5988 60.5908 492.618
-30.3183 -41.8259 498.398
51.77 -6.19968 496.407
-28.281 -50.1284 498.867
65.0813 34.7484 494.075
67.8519 7.40706 495.633
101.346 39.3322 493.831
65.262 30.0877 494.338
0.722588 -8.59958 496.507
28.8336 13.81 495.242
16.5257 15.3451 495.147
129.277 52.0376 493.115
65.0909 33.2188 494.149
-2.43444 36.5273 493.923
3.46531 -11.859 496.677
-30.7384 -51.814 498.935
102.894 37.8036 493.896
74.0008 67.7323 492.167
72.7638 63.3315 492.415
102.525 63.2448 492.434
74.9884 71.2689 491.959
72.7093 66.2703 492.239
73.6255 51.777 493.065
107.366 47.9715 493.298
0.38 -10.0568 496.546
27.377 -12.8881 496.721
126.225 50.5107 493.16
85.858 53.5523 492.96
104.769 40.7272 493.698
52.8884 -1.05992 496.051
72.5943 64.7439 492.302
7.8046 21.9891 494.703
54.0652 -4.65648 496.248
76.8219 36.2713 493.924
32.1826 8.17458 495.5
11.0636 -23.8443 497.314
92.3881 63.0075 492.405
64.1478 21.2236 494.766
77.1767 61.8004 492.46
6.81102 -17.5241 496.943
-27.236 -47.7831 498.645
9.90623 -25.0054 497.367
45.268 7.14939 495.551
76.896 27.6057 494.401
66.592 36.2699 493.901
131.809 52.0295 493.038
68.1498 33.2138 494.075
25.9301 -2.60077 496.093
23.4783 -17.318 496.924
9.83847 -22.2299 497.195
117.801 86.893 491.032
5.09426 -14.4319 496.747
15.5828 15.5128 495.045
66.1959 37.6689 493.806
-0.391407 -19.3279 497.015
24.8064 30.7902 494.171
105.361 64.6905 492.282
-29.3729 -50.5709 498.774
61.2142 0.737193 495.897
101.295 36.3333 493.89
26.5924 18.2398 494.879
4.73213 20.4542 494.739
60.6293 31.7553 494.119
105.154 70.88 491.911
69.8287 62.1554 492.386
71.1362 60.2745 492.489
62.199 63.1659 492.315
104.095 63.4217 492.323
-0.777448 -17.3934 496.873
-29.7967 -42.8497 498.304
48.5578 4.99548 495.617
43.7108 9.71042 495.345
-28.0017 -46.2205 498.493
26.3107 31.7817 494.075
13.4526 11.2464 495.237
76.8729 29.1322 494.252
116.019 86.0435 491.019
80.177 58.8609 492.546
74.3254 27.6014 494.324
99.5376 60.3816 492.469
39.5809 15.3407 495.002
9.90312 -23.7107 497.21
75.9326 27.6741 494.316
20.6369 8.17287 495.397
6.81546 -24.7428 497.266
79.1507 59.3662 492.507
88.4246 49.9884 493.044
74.0768 66.2807 492.106
57.6526 7.66085 495.439
67.9562 34.5662 493.907
72.2085 56.0721 492.682
19.6553 -11.5981 496.51
14.2364 1.50686 495.758
33.207 6.63537 495.476
16.4577 47.9531 493.11
66.8681 64.7606 492.169
29.0126 33.4595 493.93
-32.3586 -39.2176 498.036
26.8396 -8.25336 496.292
-2.9613 -13.1413 496.552
-28.6383 -5.68236 496.109
75.0066 65.9373 492.079
53.8098 33.7137 493.904
53.0084 -2.6 495.974
66.5283 2.12227 495.711
4.06391 -12.8835 496.528
54.8885 34.7955 493.834
25.2092 21.9821 494.546
75.8586 26.5773 494.311
75.5372 63.2987 492.216
72.8822 51.6035 492.869
74.0171 62.039 492.274
62.1622 0.416051 495.781
76.3268 31.1651 494.029
14.485 5.09678 495.478
8.41901 -20.6111 496.94
-27.8322 -49.0633 498.541
73.9927 64.6682 492.112
115.289 81.8303 491.156
28.7848 24.0231 494.404
64.1411 18.9167 494.714
100.938 40.4979 493.498
61.6773 29.1249 494.124
10.9319 -24.9962 497.182
65.2283 0.626833 495.747
51.6157 0.480352 495.748
81.5986 57.4802 492.51
25.1988 24.7875 494.341
64.9868 65.0021 492.07
99.8248 33.3295 493.89
58.4063 33.4552 493.859
78.2739 60.2801 492.337
21.3284 -14.5555 496.571
68.6483 63.3988 492.146
38.6094 0.993488 495.686
95.177 60.3645 492.329
19.6488 -10.8234 496.346
-31.2044 -6.70916 496.081
119.012 87.6115 490.785
108.659 48.7919 492.988
52.8151 27.5926 494.164
49.8846 3.30186 495.545
4.23523 -14.4257 496.53
74.6314 72.3394 491.62
3.81064 -23.5314 497.048
23.3899 30.6499 493.968
102.719 36.6365 493.671
53.7948 34.4712 493.766
76.5353 64.1547 492.082
61.8937 27.72 494.15
71.1771 58.9928 492.369
7.32292 -18.8039 496.769
103.312 40.3236 493.45
-32.393 -50.8734 498.573
-3.47225 -7.47991 496.109
66.0265 39.05 493.495
76.7465 63.0399 492.129
53.0052 -4.14012 495.943
-2.95956 -10.3079 496.262
120.579 47.4355 493.035
117.241 86.3461 490.813
105.774 47.4344 493.023
69.5761 31.4984 493.911
14.4891 0.993349 495.617
75.5301 61.9583 492.17
19.857 9.45006 495.133
14.4642 15.8455 494.766
13.951 16.3565 494.731
112.878 50.4779 492.84
14.4845 3.55765 495.459
83.226 56.3047 492.486
110.257 50.1146 492.851
67.5778 35.9945 493.631
57.0029 12.0095 494.991
93.7011 61.9573 492.161
21.714 -16.1161 496.573
141.428 51.8304 492.765
-4.22188 34.7191 493.659
63.6043 20.1893 494.523
52.8128 26.5682 494.143
0.465351 -9.10698 496.148
34.7384 4.83904 495.368
102.033 60.8593 492.21
58.839 5.09506 495.35
36.153 3.42893 495.428
24.6686 -16.3539 496.548
46.0106 6.37612 495.261
15.2471 6.37584 495.244
60.6531 2.0189 495.508
122.073 48.5437 492.887
68.8901 62.6229 492.054
72.9202 52.8769 492.61
114.688 51.1802 492.724
27.8786 24.142 494.216
115.51 81.0445 491.017
114.958 84.3162 490.828
59.5233 31.7635 493.793
111.758 50.131 492.774
71.1265 30.3883 493.876
123.083 48.9478 492.845
5.4683 -15.8631 496.475
8.66118 -22.1492 496.829
111.756 76.2555 491.274
47.6029 5.19739 495.29
72.6614 28.9682 493.947
64.7992 64.1355 491.934
71.7057 29.6233 493.905
135.327 48.9471 492.838
100.791 34.9715 493.614
114.977 82.5511 490.908
23.4238 -16.3092 496.492
115.775 79.7813 491.063
14.4723 8.9357 495.042
-3.60014 -8.63413 496.034
97.6913 37.7689 493.443
116.954 48.9449 492.816
63.4969 21.4616 494.351
115.402 50.466 492.723
4.23624 -19.5706 496.649
62.26 62.6149 491.991
3.20468 -10.819 496.144
63.3645 22.9921 494.249
113.316 76.8542 491.2
38.0774 1.67692 495.445
115.186 85.3134 490.718
97.0343 59.3784 492.184
48.9842 3.63007 495.333
24.7571 -3.88207 495.745
75.8685 28.9654 493.898
27.7187 32.8444 493.646
25.7763 -1.57203 495.606
98.4733 58.061 492.246
70.168 60.589 492.085
8.30849 22.8622 494.201
-3.47259 -11.5898 496.159
-30.8333 -50.9055 498.384
31.8954 8.6791 495.019
63.3713 49.4446 492.711
19.079 10.7263 494.894
27.3507 -12.8761 496.244
71.2933 57.8896 492.233
100.99 60.3356 492.095
15.3555 5.02056 495.198
8.28818 -23.6283 496.827
27.7481 22.989 494.175
107.248 48.4926 492.757
114.813 77.954 491.08
3.20464 -11.8461 496.138
35.4988 4.06879 495.245
128.116 51.7259 492.579
26.2722 24.5187 494.072
60.7802 30.2962 493.762
63.7992 0.333318 495.47
102.83 62.2713 491.958
-5.26815 -8.761 495.949
103.848 62.2713 491.958
-3.47162 -10.0462 496.02
24.6543 31.1434 493.686
16.191 47.154 492.76
1.15078 -16.9917 496.409
50.172 -6.70603 495.849
76.2826 30.3803 493.743
98.3843 59.0652 492.119
1.91993 -9.27466 495.957
72.5003 54.5061 492.356
74.6558 70.4315 491.447
52.9454 29.105 493.791
0.808379 -19.3945 496.527
-1.07509 -8.41796 495.9
14.2874 15.1564 494.562
74.7727 66.6442 491.658
74.6654 69.1683 491.509
25.1872 22.986 494.115
55.4116 16.3492 494.51
66.8164 64.1164 491.788
91.433 47.4083 492.752
64.3948 47.4068 492.737
94.3439 61.0844 491.971
109.451 74.7185 491.2
58.7206 6.28831 495.073
107.772 73.3731 491.272
74.2895 63.273 491.828
64.1325 48.1669 492.683
74.5883 67.8186 491.561
16.7616 14.8145 494.545
125.161 50.1461 492.589
63.256 63.1016 491.815
76.7648 32.6681 493.557
75.9964 73.4012 491.233
105.008 63.3572 491.822
15.5014 3.6197 495.178
56.3114 34.7026 493.422
35.0938 18.0499 494.353
-0.899102 36.734 493.265
-0.39084 -16.474 496.295
54.2722 33.6833 493.459
134.238 49.6871 492.588
28.8917 23.1108 494.043
17.5718 -6.70448 495.735
92.0235 62.5929 491.818
6.66968 21.7566 494.077
51.6913 -5.42068 495.651
104.211 43.848 492.87
99.8229 59.1769 491.991
20.6668 -13.9 496.113
21.1291 7.14019 494.913
14.9805 7.14001 494.901
6.28769 -16.4722 496.242
6.87128 -23.7486 496.655
115.885 78.5324 490.883
50.3632 2.12027 495.204
108.648 50.006 492.499
5.26439 -23.6836 496.64
65.4886 1.76151 495.221
60.9354 29.3519 493.638
-1.93165 -15.4421 496.156
104.166 46.8891 492.657
103.932 40.899 492.997
66.7543 3.55488 495.104
72.8931 65.6143 491.567
51.8497 -4.13686 495.532
83.0181 71.1669 491.255
100.701 59.5511 491.927
62.7286 63.5922 491.672
126.643 51.3507 492.403
63.0142 24.255 493.91
131.112 52.4653 492.338
116.262 49.8291 492.48
21.5338 49.4184 492.45
24.8833 -1.13163 495.334
24.741 -2.59717 495.415
24.2163 1.5051 495.18
76.7542 31.6417 493.489
24.7325 0.223672 495.251
78.4146 73.6849 491.09
18.6459 48.7415 492.476
113.206 51.5943 492.366
108.897 51.4493 492.371
59.9002 30.6227 493.531
65.6011 64.7683 491.584
-2.36998 -8.83049 495.742
84.4352 55.752 492.105
0.709485 -10.3721 495.827
15.2454 0.992485 495.186
42.6905 -2.59755 495.401
13.4364 10.4647 494.639
4.74483 -14.6689 496.067
15.4765 15.0653 494.377
63.7342 64.5976 491.576
135.739 49.4215 492.481
111.745 51.4466 492.346
97.8171 43.3308 492.792
3.72076 -22.4769 496.491
132.515 51.4465 492.343
75.9623 72.2495 491.124
123.573 49.8406 492.426
5.23627 21.1052 493.997
-30.5249 -41.7556 497.561
117.798 48.3019 492.504
140.182 51.5466 492.33
8.30103 25.0146 493.769
3.70283 20.4247 494.026
61.8338 2.0173 495.104
105.657 48.4013 492.478
103.86 45.2566 492.655
110.414 75.0883 490.957
71.8617 65.6019 491.474
72.1572 30.1096 493.496
106 72.163 491.113
33.884 18.4469 494.125
-2.18745 -13.124 495.904
60.0788 3.29806 495.002
109.725 48.9062 492.426
65.9494 39.7699 492.918
27.4087 16.8504 494.201
56.9404 12.7641 494.449
74.4074 64.8401 491.486
37.9843 16.34 494.229
73.907 63.8299 491.541
-32.8272 -38.6467 497.325
108.396 52.7032 492.181
88.8086 49.6622 492.343
107.644 51.6902 492.237
2.11149 -10.3605 495.714
108.889 73.9192 490.957
26.4624 18.8912 494.047
70.3792 59.0243 491.781
95.8317 59.5316 491.765
20.4851 -13.0373 495.861
138.238 50.423 492.303
6.80301 -22.1286 496.364
93.9422 45.8577 492.535
75.8722 71.0578 491.088
25.253 -5.16144 495.405
53.7368 33.1573 493.233
31.3148 20.4214 493.945
119.155 47.8863 492.423
65.3147 63.5067 491.501
137.094 49.9145 492.315
64.87 46.3616 492.472
101.669 60.5397 491.683
99.4074 58.0113 491.825
52.2896 -2.4681 495.244
21.6872 -15.4361 495.964
3.45938 -13.1218 495.821
106.192 65.085 491.414
114.176 76.9353 490.743
26.6312 -9.09683 495.596
18.0761 -7.47086 495.493
65.1277 45.344 492.494
-2.29625 -10.2947 495.627
53.2295 31.6275 493.264
15.4298 1.95265 494.935
22.1469 5.08918 494.759
13.2559 13.442 494.276
120.834 48.388 492.343
-2.44322 -11.8359 495.707
101.296 40.9467 492.754
26.0259 -7.47005 495.469
83.1142 56.9929 491.824
31.3494 9.69368 494.491
2.23953 -11.7714 495.693
57.7071 10.7164 494.44
85.6881 53.9556 491.985
74.187 28.9546 493.403
122.174 49.3997 492.264
129.719 52.6417 492.082
98.8728 59.0144 491.698
138.968 50.9199 492.18
17.4488 48.0414 492.271
-29.7458 -43.2915 497.452
49.0093 -5.50264 495.341
90.3289 48.2141 492.297
-2.13573 -14.3018 495.806
40.7967 14.037 494.21
21.63 6.11224 494.651
-2.17425 35.9438 492.933
77.356 73.6452 490.825
69.3229 61.5361 491.511
13.4269 12.2481 494.29
-31.2801 -40.7028 497.284
104.161 42.0927 492.634
118.337 86.7267 490.093
-0.903164 -10.2932 495.557
17.2151 -6.01528 495.321
73.3783 63.0495 491.409
111.712 75.6599 490.71
55.8795 15.3133 494.12
101.683 35.6921 492.981
110.059 51.1153 492.1
54.2242 34.1639 493.022
30.5351 21.1797 493.741
25.6783 21.4342 493.722
62.2188 22.4549 493.684
49.042 2.52846 494.808
65.3784 43.7389 492.463
76.6871 33.4007 493.058
62.5682 62.0324 491.412
99.6595 42.0873 492.569
26.2687 23.133 493.609
14.5807 9.56351 494.376
32.5372 18.5776 493.868
56.2585 34.6699 492.959
29.7975 12.2466 494.222
50.3685 -5.73693 495.257
15.9956 5.34363 494.605
107.112 49.5141 492.135
52.049 -1.05761 494.988
94.9317 45.0789 492.38
26.5401 -10.1639 495.49
105.913 70.9472 490.909
59.5292 4.06426 494.694
65.5311 42.2138 492.516
6.65114 -19.104 495.972
20.4983 49.3802 492.069
57.7927 33.651 492.986
102.552 40.7643 492.605
92.361 46.6814 492.261
66.676 63.3975 491.289
16.0091 -2.59511 495.022
0.635749 -11.8318 495.535
15.9994 2.52802 494.721
43.6853 -3.10779 495.056
125.424 50.9031 492.018
56.6441 13.7782 494.097
106.176 66.6708 491.103
-0.64705 -17.4857 495.842
30.8229 10.542 494.259
0.892972 -20.058 495.987
75.4323 29.5808 493.196
44.1363 8.66767 494.367
18.84 -8.7505 495.346
104.056 48.3679 492.136
7.955 -22.1168 496.097
4.21058 20.9198 493.641
35.474 16.9859 493.88
65.6938 40.8606 492.533
14.443 13.7767 494.047
24.1127 31.104 493.061
61.0678 2.52797 494.711
96.7119 44.0575 492.36
23.6941 -2.59489 494.979
54.8285 33.3423 492.947
85.134 54.9454 491.726
63.7506 63.5967 491.214
7.82475 -20.5712 495.981
112.993 52.5842 491.861
111.888 52.6682 491.854
81.8794 57.8085 491.543
28.6967 33.6446 492.891
16.9142 13.7759 494.016
103.686 35.9343 492.8
79.7368 59.9968 491.406
110.616 52.4138 491.855
99.8475 58.7345 491.485
62.5892 21.556 493.583
102.865 61.6814 491.318
19.4766 48.8636 491.997
116.276 85.5194 489.958
26.286 -13.1655 495.535
24.8562 -15.6324 495.674
4.99785 -16.0687 495.683
76.6516 34.6605 492.829
-0.903208 -11.8293 495.434
23.1285 -15.7692 495.67
69.4705 60.3298 491.354
48.2524 3.29543 494.59
101.841 61.762 491.284
26.3545 19.8971 493.623
15.4826 3.03928 494.575
-36.91 -37.2372 496.838
75.9531 65.0388 491.064
110.325 74.1137 490.563
115.864 77.6369 490.362
102.868 60.4963 491.331
69.7777 32.116 492.927
0.550612 -18.8524 495.791
94.7325 59.9894 491.345
93.1896 61.5042 491.256
25.9477 -15.5962 495.613
2.17635 -21.5963 495.939
66.9253 37.7037 492.592
26.1391 -14.3234 495.534
78.9552 60.5641 491.292
104.37 61.9449 491.22
58.2841 7.98378 494.269
5.25813 -23.655 496.044
77.061 73.0982 490.564
102.747 35.8758 492.699
-0.903362 -15.6806 495.578
48.5462 -4.64454 494.976
16.5194 -4.64437 494.957
15.3695 7.84693 494.243
-35.6193 -37.0611 496.775
72.4012 53.159 491.683
67.8664 63.3909 491.097
36.5405 16.8349 493.734
20.3788 -11.8278 495.359
102.996 48.8583 491.944
6.28046 -17.4796 495.671
62.4607 2.01529 494.589
29.2393 21.9327 493.434
121.279 88.6812 489.679
29.2674 13.517 493.91
5.25678 -22.109 495.92
-3.95878 34.3959 492.692
104.342 49.5316 491.887
-28.9734 -49.4717 497.456
0.571725 -17.543 495.649
6.79566 -20.5648 495.825
96.6432 58.5925 491.361
15.8009 14.112 493.851
107.153 72.4648 490.574
